NCOLS 320
NROWS 31
XLLCORNER 618410.159
YLLCORNER 5103485.286
CELLSIZE 100 
NODATA_value -9999 
-9999 -9999 -9999 -9999 -9999 -9999 -9999 -9999 -9999 -9999 -9999 -9999 -9999 -9999 -9999 -9999 -9999 -9999 -9999 -9999 -9999 -9999 -9999 -9999 -9999 -9999 -9999 -9999 -9999 -9999 -9999 -9999 -9999 -9999 -9999 -9999 -9999 -9999 -9999 -9999 -9999 -9999 -9999 -9999 -9999 -9999 -9999 -9999 3051.76001 2956.949951 2897.629883 2918.179932 2971.139893 2968.100098 2973.080078 2947.110107 2842.580078 2795.040039 2764.409912 2727.360107 2699.439941 2664.919922 2620.459961 2571.350098 2528.97998 2483.860107 2432.370117 2389.26001 2376.310059 2325.73999 2255.449951 2211.530029 2171.669922 2140.050049 2125.889893 2138.639893 2169.070068 2192.040039 2211.909912 2237.48999 2242.060059 2246.719971 2272.969971 2318.300049 2205.98999 2121.639893 2062.52002 2027.310059 1942.869995 1893.290039 1834.26001 1786.619995 1745.530029 1689.569946 1608.160034 1595.630005 1557.890015 1522.680054 1475.790039 1433.380005 1395.949951 1378.439941 1360.540039 1328.910034 1313.859985 1291.98999 1271.939941 1255.449951 1229.689941 1208.079956 1194.050049 1175.939941 1147.25 1137.72998 1128.01001 1120.47998 1116.300049 1114.97998 1108.709961 1100.709961 1095.819946 1097.099976 1096.949951 1092.160034 1079.449951 1066.339966 1068.209961 1077.329956 1089.890015 1104.849976 1140.609985 1169.339966 1180.130005 1187.719971 1202.209961 1225.579956 1251.069946 1278.420044 1314.150024 1339.26001 1346.910034 1316.900024 1326.390015 1292.670044 1254.089966 1205.689941 1134.880005 1047.579956 963.02002 891.640015 830.070007 776.039978 731.5 699.72998 675.320007 655.460022 646.049988 644.25 641.969971 644.380005 656.070007 675.590027 692.23999 709.840027 740.159973 789.72998 851.109985 899.330017 953.549988 1005.200012 1044.050049 1093.359985 1125.5 1176.530029 1241.359985 1312.150024 1379.73999 1453.589966 1510.400024 1559.030029 1603.670044 1643.920044 1685.72998 1727.199951 1773.890015 1830.599976 1832.48999 1789.319946 1737.050049 1684.98999 1631.22998 1584.630005 1575.449951 1602.380005 1633.27002 1661.050049 1700.76001 1754.109985 1815.959961 1836.75 1774.819946 1716.880005 1685.359985 1655.189941 1621.910034 1557.380005 1490.849976 1418.880005 1365.589966 1295.920044 1221.609985 1155.27002 1092.160034 1075.699951 1035.97998 989.409973 966.77002 1000.25 1062.380005 1138.869995 1214.920044 1259.310059 1299.22998 1312.530029 1343.079956 1381.369995 1410.130005 1447.52002 1482.27002 1514.180054 1566.550049 1613.290039 1661 1723.920044 1819.560059 1912.619995 2017.400024 2129.030029 2217.27002 2325 2427.320068 -9999 -9999 -9999 -9999 -9999 -9999 -9999 -9999 -9999 -9999 -9999 -9999 -9999 -9999 -9999 -9999 -9999 -9999 -9999 -9999 -9999 -9999 -9999 -9999 -9999 -9999 -9999 -9999 -9999 -9999 -9999 -9999 -9999 -9999 -9999 -9999 -9999 -9999 -9999 -9999 -9999 -9999 -9999 -9999 -9999 -9999 -9999 -9999 -9999 -9999 -9999 -9999 -9999 -9999 -9999 -9999 -9999 -9999 -9999 -9999 -9999 -9999 -9999 -9999 -9999 -9999 -9999 -9999 -9999 -9999 -9999 -9999 -9999 -9999 -9999 -9999 -9999 -9999 -9999
-9999 -9999 -9999 -9999 -9999 -9999 -9999 -9999 -9999 -9999 -9999 -9999 -9999 -9999 -9999 -9999 -9999 -9999 -9999 -9999 -9999 -9999 -9999 -9999 -9999 -9999 -9999 -9999 -9999 -9999 -9999 -9999 -9999 -9999 -9999 -9999 -9999 -9999 -9999 -9999 -9999 -9999 -9999 -9999 -9999 -9999 -9999 -9999 3068.959961 2979.459961 2862.969971 2838.330078 2853.669922 2917.929932 2922.22998 2931.48999 2843.399902 2792.77002 2757.560059 2723.909912 2689.100098 2637.830078 2582.75 2541.909912 2500.340088 2453.610107 2386.649902 2323.48999 2302.629883 2280.409912 2227.929932 2178.719971 2144.060059 2134.72998 2147.25 2182.01001 2222.51001 2245.030029 2258.429932 2280.169922 2295.73999 2320.070068 2346.070068 2327.449951 2247.850098 2205.050049 2142.22998 2065.27002 2025.660034 1975.380005 1891.920044 1837.290039 1778.709961 1727.150024 1690.719971 1658.410034 1648.219971 1631.619995 1617.02002 1569.469971 1493.75 1455.339966 1439.76001 1397.150024 1365.27002 1340.839966 1322.650024 1291.670044 1259.579956 1246.109985 1229.640015 1209.150024 1183.25 1172.150024 1158.959961 1139.530029 1116.810059 1099.089966 1089.920044 1083.560059 1077.630005 1071.459961 1066.560059 1063.459961 1057.859985 1049.410034 1046.390015 1052.109985 1063.660034 1068.51001 1081.680054 1108.189941 1133.02002 1154.52002 1164.099976 1171.449951 1182.959961 1193.219971 1216.680054 1241.829956 1271.349976 1239.290039 1248.599976 1224.97998 1197.170044 1152.709961 1080.5 1004.369995 930.039978 861.549988 798.719971 751.679993 710 680.390015 661.799988 649.099976 642.419983 641.76001 641.51001 646.299988 668.5 684.700012 697.01001 725.070007 763.909973 800.02002 875.650024 933.73999 977.940002 1019.669983 1061.140015 1114.599976 1165.550049 1185.23999 1241.969971 1311.930054 1371.369995 1438.459961 1506.780029 1566.459961 1625.079956 1674.77002 1734.589966 1779.040039 1816.98999 1842.359985 1800.829956 1749.640015 1707.01001 1653.619995 1606.439941 1564.369995 1568.369995 1618.310059 1666.290039 1702.050049 1727.22998 1772.530029 1827.349976 1800.640015 1737.5 1670.550049 1602.180054 1586.030029 1587.369995 1523.98999 1469.839966 1405.339966 1362.540039 1302.869995 1231.420044 1161.439941 1093.98999 1049.579956 1015.119995 960.390015 964.289978 1024.069946 1104.22998 1207.310059 1276.800049 1312.22998 1362.439941 1406.430054 1431.170044 1462.040039 1492.859985 1503.949951 1520 1572.920044 1617.030029 1634.02002 1653.939941 1710.219971 1805.790039 1905.180054 2030.079956 2115.75 2233.379883 2330.050049 2417.070068 -9999 -9999 -9999 -9999 -9999 -9999 -9999 -9999 -9999 -9999 -9999 -9999 -9999 -9999 -9999 -9999 -9999 -9999 -9999 -9999 -9999 -9999 -9999 -9999 -9999 -9999 -9999 -9999 -9999 -9999 -9999 -9999 -9999 -9999 -9999 -9999 -9999 -9999 -9999 -9999 -9999 -9999 -9999 -9999 -9999 -9999 -9999 -9999 -9999 -9999 -9999 -9999 -9999 -9999 -9999 -9999 -9999 -9999 -9999 -9999 -9999 -9999 -9999 -9999 -9999 -9999 -9999 -9999 -9999 -9999 -9999 -9999 -9999 -9999 -9999 -9999 -9999 -9999 -9999
-9999 -9999 -9999 -9999 -9999 -9999 -9999 -9999 -9999 -9999 -9999 -9999 -9999 -9999 -9999 -9999 -9999 -9999 -9999 -9999 -9999 -9999 -9999 -9999 -9999 -9999 -9999 -9999 -9999 -9999 -9999 -9999 -9999 -9999 -9999 -9999 -9999 -9999 -9999 -9999 -9999 -9999 -9999 -9999 -9999 -9999 -9999 -9999 3029.080078 2945.090088 2844.870117 2808.100098 2805.830078 2832.22998 2878.300049 2882.379883 2860.870117 2769.949951 2725.100098 2691.909912 2649.959961 2604.340088 2552.97998 2505.340088 2464.52002 2419.350098 2373.98999 2304.52002 2253.590088 2218.629883 2183.550049 2158 2153.820068 2177.340088 2194.889893 2233.139893 2285.409912 2298.060059 2298.629883 2319.409912 2342.850098 2374.540039 2396.590088 2376.439941 2331.860107 2280.469971 2208.159912 2156.469971 2103.070068 2026.150024 1927.52002 1863.709961 1819.469971 1780.819946 1757.48999 1724.22998 1739.469971 1721.300049 1714.949951 1639.060059 1561.48999 1538.349976 1532.640015 1501.130005 1451.25 1403.150024 1379.560059 1336.420044 1306.619995 1295.030029 1272.880005 1244.280029 1222.430054 1216.949951 1200.800049 1173.48999 1148.319946 1128.439941 1119.319946 1111.47998 1104.089966 1089.719971 1078.75 1061.459961 1056.640015 1050.939941 1047 1039.290039 1037.550049 1039.550049 1038.939941 1054.449951 1080.939941 1104.670044 1127.819946 1124.280029 1115.699951 1119.310059 1127.530029 1163.709961 1183.209961 1164.22998 1168.22998 1147.880005 1125.22998 1093.709961 1039.699951 959.599976 895.159973 828.539978 769.309998 720.02002 687.48999 665.77002 652.22998 644.030029 639.25 639.349976 638.359985 653.950012 679.77002 699.700012 716.299988 765.719971 822.809998 832.919983 878.440002 954.340027 993.51001 1027.380005 1073.859985 1134.079956 1192.26001 1224.579956 1255.459961 1298.189941 1358.150024 1421.849976 1495.560059 1564.949951 1639.97998 1699.22998 1751.01001 1769.920044 1787.619995 1811.819946 1770.540039 1734.23999 1687.650024 1630.530029 1584.189941 1543.400024 1564.930054 1627.930054 1679.540039 1723.880005 1760.160034 1801.890015 1842.969971 1779.469971 1696.349976 1637.099976 1575.199951 1511.27002 1504.47998 1464.660034 1434.380005 1359.920044 1343.119995 1297.589966 1226.910034 1158.26001 1095.900024 1045.030029 995.700012 942.909973 978.080017 1065.680054 1136.209961 1192.609985 1262.050049 1329.099976 1384.699951 1438.160034 1476.900024 1520.599976 1581.310059 1603.420044 1622.099976 1694.959961 1726.089966 1732.079956 1773.579956 1836.339966 1877.72998 1908.069946 2004.329956 2085.449951 2182.570068 2277.790039 2363.409912 -9999 -9999 -9999 -9999 -9999 -9999 -9999 -9999 -9999 -9999 -9999 -9999 -9999 -9999 -9999 -9999 -9999 -9999 -9999 -9999 -9999 -9999 -9999 -9999 -9999 -9999 -9999 -9999 -9999 -9999 -9999 -9999 -9999 -9999 -9999 -9999 -9999 -9999 -9999 -9999 -9999 -9999 -9999 -9999 -9999 -9999 -9999 -9999 -9999 -9999 -9999 -9999 -9999 -9999 -9999 -9999 -9999 -9999 -9999 -9999 -9999 -9999 -9999 -9999 -9999 -9999 -9999 -9999 -9999 -9999 -9999 -9999 -9999 -9999 -9999 -9999 -9999 -9999 -9999
-9999 -9999 -9999 -9999 -9999 -9999 -9999 -9999 -9999 -9999 -9999 -9999 -9999 -9999 -9999 -9999 -9999 -9999 -9999 -9999 -9999 -9999 -9999 -9999 -9999 -9999 -9999 -9999 -9999 -9999 -9999 -9999 -9999 -9999 -9999 -9999 -9999 -9999 -9999 -9999 -9999 -9999 -9999 -9999 -9999 -9999 -9999 -9999 3003.370117 2933 2832.669922 2791.219971 2779.620117 2783.350098 2813.439941 2833.469971 2844.419922 2831.48999 2706.919922 2650.97998 2611.199951 2575.050049 2530.110107 2474.879883 2425.73999 2370.77002 2325.169922 2277.909912 2229.600098 2202.5 2180.570068 2174.080078 2210.820068 2246.709961 2279.850098 2306.570068 2333.610107 2344.540039 2344.639893 2360.659912 2380.429932 2425.169922 2474.360107 2460.969971 2417.050049 2361.199951 2277.600098 2198.139893 2115.639893 2026.23999 1947.73999 1896.23999 1855.170044 1820.280029 1800.630005 1814.280029 1812.189941 1793.959961 1778.23999 1706.420044 1649.050049 1607.780029 1614.859985 1608.199951 1529.150024 1466.829956 1464.349976 1429.97998 1388.560059 1352.829956 1322.859985 1298.180054 1280.680054 1267.359985 1253.969971 1224.579956 1209.930054 1200.72998 1187.900024 1173.72998 1158.52002 1142.839966 1124.910034 1106.72998 1105.209961 1098.780029 1089.040039 1074.97998 1057.469971 1035.859985 1020.070007 1015.48999 1037.459961 1053.109985 1068.849976 1067.040039 1053.5 1052.709961 1054.790039 1073.630005 1091.48999 1096.959961 1100.359985 1078.75 1062.619995 1036.910034 1002.97998 941.669983 868.909973 800.73999 746.390015 696.26001 665.549988 648.469971 642.72998 639.280029 638.330017 636.539978 643.369995 667.419983 687.48999 714.330017 745.200012 792.309998 855.23999 899.5 914.090027 960.650024 1019.22998 1049.339966 1093.170044 1155.219971 1201.589966 1237.119995 1277.72998 1326.369995 1392.349976 1453.650024 1502.579956 1556.390015 1634.75 1709.72998 1746.469971 1726.670044 1754.060059 1777.890015 1732.22998 1693.209961 1667.77002 1616.959961 1567.810059 1526.890015 1554.930054 1599.410034 1643.819946 1686.060059 1736.310059 1791.810059 1816.920044 1760.339966 1680.22998 1602.380005 1542.030029 1475.829956 1417.550049 1393.319946 1381.170044 1305.619995 1308.189941 1272.569946 1208.819946 1142.719971 1077.119995 1031.469971 982.590027 935.51001 975.559998 1060.530029 1106.73999 1129.26001 1196.73999 1273.859985 1332.670044 1384.069946 1435.680054 1501.810059 1560.150024 1605.160034 1668.290039 1728.880005 1795.560059 1850.339966 1915.109985 1956.969971 1964.050049 1966.459961 1987.969971 2042.959961 2145.909912 2271.120117 2351.370117 -9999 -9999 -9999 -9999 -9999 -9999 -9999 -9999 -9999 -9999 -9999 -9999 -9999 -9999 -9999 -9999 -9999 -9999 -9999 -9999 -9999 -9999 -9999 -9999 -9999 -9999 -9999 -9999 -9999 -9999 -9999 -9999 -9999 -9999 -9999 -9999 -9999 -9999 -9999 -9999 -9999 -9999 -9999 -9999 -9999 -9999 -9999 -9999 -9999 -9999 -9999 -9999 -9999 -9999 -9999 -9999 -9999 -9999 -9999 -9999 -9999 -9999 -9999 -9999 -9999 -9999 -9999 -9999 -9999 -9999 -9999 -9999 -9999 -9999 -9999 -9999 -9999 -9999 -9999
-9999 -9999 -9999 -9999 -9999 -9999 -9999 -9999 -9999 -9999 -9999 -9999 -9999 -9999 -9999 -9999 -9999 -9999 -9999 -9999 -9999 -9999 -9999 -9999 -9999 -9999 -9999 -9999 -9999 -9999 -9999 -9999 -9999 -9999 -9999 -9999 -9999 -9999 -9999 -9999 -9999 -9999 -9999 -9999 -9999 -9999 -9999 -9999 2957.929932 2885.050049 2791.320068 2758.370117 2736.939941 2735.360107 2757.409912 2771 2786.300049 2818.439941 2755.209961 2655.98999 2595.919922 2557.870117 2508.76001 2449.540039 2395.27002 2342.179932 2298.959961 2262.23999 2230.76001 2207.97998 2196.310059 2221.949951 2270.76001 2318.98999 2342.280029 2354.98999 2373.580078 2383.969971 2388.75 2409.050049 2437.01001 2453.199951 2456.22998 2458.719971 2452.530029 2389.540039 2301.600098 2222.790039 2139.76001 2028.089966 1975.160034 1924.859985 1888.329956 1859.01001 1869.75 1914.060059 1877.719971 1860.349976 1818.449951 1772.650024 1716.310059 1698.869995 1698.22998 1622.939941 1568.199951 1569.079956 1560.819946 1516.189941 1457.599976 1418.329956 1403.939941 1385.680054 1361.880005 1329.469971 1329.459961 1323.790039 1307.459961 1299.040039 1274.939941 1253.589966 1226.189941 1205.660034 1188.170044 1169.390015 1157.140015 1146.910034 1139.079956 1130.77002 1111.430054 1088.560059 1060.969971 1033.52002 1006.059998 1002.5 1007.77002 1004.619995 1001.27002 991.669983 991.150024 989.340027 996.049988 1014.840027 1013.590027 992.809998 1008.880005 985.210022 953.219971 913.419983 845.549988 776.320007 717.710022 677.27002 648.679993 640.5 639.179993 636.719971 635.630005 634.299988 648.469971 667.859985 690.75 732.580017 772.840027 800.640015 867.789978 936.950012 971.429993 997.840027 1023.070007 1070.790039 1115.469971 1156.349976 1199.969971 1246.27002 1291.310059 1343.890015 1402.73999 1466.560059 1534.390015 1591.640015 1652.060059 1711.359985 1724.25 1689.22998 1704.48999 1730.329956 1690.180054 1649.670044 1619.170044 1585.859985 1544.51001 1516.189941 1554.589966 1596.329956 1644.699951 1690.560059 1738.930054 1789.160034 1758.48999 1732.660034 1699.060059 1592.5 1510.319946 1433.709961 1370.140015 1320.040039 1304.089966 1262.140015 1238.839966 1231.079956 1190.420044 1133.079956 1063.930054 1013.030029 949.570007 924.320007 969.51001 1016.719971 1058.98999 1121.650024 1204.579956 1253.790039 1296.98999 1345.150024 1397.530029 1453.040039 1503.449951 1561.369995 1626.76001 1693.670044 1773.089966 1855.48999 1914.430054 2002.140015 2057.889893 2058.610107 2020.76001 2064.370117 2152.01001 2260.840088 2320.52002 -9999 -9999 -9999 -9999 -9999 -9999 -9999 -9999 -9999 -9999 -9999 -9999 -9999 -9999 -9999 -9999 -9999 -9999 -9999 -9999 -9999 -9999 -9999 -9999 -9999 -9999 -9999 -9999 -9999 -9999 -9999 -9999 -9999 -9999 -9999 -9999 -9999 -9999 -9999 -9999 -9999 -9999 -9999 -9999 -9999 -9999 -9999 -9999 -9999 -9999 -9999 -9999 -9999 -9999 -9999 -9999 -9999 -9999 -9999 -9999 -9999 -9999 -9999 -9999 -9999 -9999 -9999 -9999 -9999 -9999 -9999 -9999 -9999 -9999 -9999 -9999 -9999 -9999 -9999
-9999 -9999 -9999 -9999 -9999 -9999 -9999 -9999 -9999 -9999 -9999 -9999 -9999 -9999 -9999 -9999 -9999 -9999 -9999 -9999 -9999 -9999 -9999 -9999 -9999 -9999 -9999 -9999 -9999 -9999 -9999 -9999 -9999 -9999 -9999 -9999 -9999 -9999 -9999 -9999 -9999 -9999 -9999 -9999 -9999 -9999 -9999 -9999 2894.179932 2819.560059 2759.72998 2710.550049 2689.350098 2695.469971 2716.76001 2726.389893 2738.540039 2766.719971 2753.409912 2675.219971 2589.219971 2542.949951 2482.090088 2413.929932 2359.879883 2319.669922 2293.219971 2267.600098 2247.370117 2249.47998 2260.01001 2290.560059 2331.129883 2366.949951 2384.389893 2394 2398.77002 2416.870117 2439.959961 2423 2357.149902 2340.550049 2342.98999 2361.97998 2373.449951 2363.26001 2313.820068 2237.300049 2134.419922 2042.310059 1996.829956 1954.02002 1931.859985 1956.27002 1956.050049 1992.550049 1973.48999 1935.209961 1878.599976 1849.119995 1785.329956 1796.880005 1740.099976 1680.290039 1661.459961 1672.949951 1641.650024 1563.640015 1514.280029 1487.650024 1494.829956 1467.800049 1429.880005 1401.52002 1417.180054 1421.819946 1410.069946 1390.329956 1371.709961 1343.709961 1309.300049 1285.089966 1262.050049 1233.98999 1213.859985 1198.089966 1193.660034 1181.569946 1167.910034 1146.47998 1116.75 1084.23999 1050.160034 1011.190002 980.820007 960.049988 948.179993 939.900024 937.580017 925.809998 920.349976 917.369995 906.039978 917.090027 950.059998 929.929993 908.27002 879.72998 810.909973 745.530029 689.559998 658.789978 643.960022 640.460022 637.890015 635.599976 633.26001 632.919983 647.349976 669.539978 708.150024 759.530029 800.969971 841.919983 867.950012 922.710022 996.590027 1032.23999 1071.160034 1080.579956 1126.130005 1169.790039 1212.430054 1249.459961 1292.530029 1340.180054 1406.660034 1473.680054 1545.949951 1615.119995 1682.900024 1727.709961 1708.069946 1664.819946 1660.079956 1686.869995 1664.459961 1615.380005 1580.109985 1546.25 1516.689941 1511.73999 1558 1605.119995 1657.430054 1712.77002 1761.160034 1786.73999 1708.589966 1655.23999 1632.849976 1592.280029 1511.52002 1453.76001 1399.609985 1304.430054 1236.680054 1210.48999 1174.869995 1163.660034 1150.890015 1121.040039 1057.719971 998.030029 933.51001 915.280029 960.27002 1026.670044 1093.780029 1163.160034 1237.319946 1307.02002 1363.72998 1369.579956 1387.150024 1418.02002 1467.030029 1551.170044 1619.949951 1689.819946 1747.51001 1816.75 1884.369995 1978.890015 2064.669922 2096.75 2053.110107 2073.340088 2135.23999 2201.540039 2260.219971 -9999 -9999 -9999 -9999 -9999 -9999 -9999 -9999 -9999 -9999 -9999 -9999 -9999 -9999 -9999 -9999 -9999 -9999 -9999 -9999 -9999 -9999 -9999 -9999 -9999 -9999 -9999 -9999 -9999 -9999 -9999 -9999 -9999 -9999 -9999 -9999 -9999 -9999 -9999 -9999 -9999 -9999 -9999 -9999 -9999 -9999 -9999 -9999 -9999 -9999 -9999 -9999 -9999 -9999 -9999 -9999 -9999 -9999 -9999 -9999 -9999 -9999 -9999 -9999 -9999 -9999 -9999 -9999 -9999 -9999 -9999 -9999 -9999 -9999 -9999 -9999 -9999 -9999 -9999
-9999 -9999 -9999 -9999 -9999 -9999 -9999 -9999 -9999 -9999 -9999 -9999 -9999 -9999 -9999 -9999 -9999 -9999 -9999 -9999 -9999 -9999 -9999 -9999 -9999 -9999 -9999 -9999 -9999 -9999 -9999 -9999 -9999 -9999 -9999 -9999 -9999 -9999 -9999 -9999 -9999 -9999 -9999 -9999 -9999 -9999 -9999 -9999 2848.530029 2796.5 2751.790039 2695.98999 2660.179932 2645.689941 2654.080078 2672.620117 2699.27002 2725.540039 2706.73999 2637.969971 2584.320068 2524.139893 2455.72998 2373.340088 2330.129883 2305.75 2288.330078 2276.610107 2280.01001 2308.669922 2334.919922 2365.97998 2386.959961 2406.090088 2418.560059 2429.360107 2429.120117 2469.01001 2489.370117 2427.73999 2328.100098 2278.280029 2263.129883 2258.280029 2270.77002 2273.330078 2259.350098 2246.120117 2145.340088 2067.76001 2029.300049 2004.75 2011.47998 2044.959961 2053.449951 2082.050049 2058.26001 2017.390015 1970.25 1934.75 1885.800049 1847.449951 1797.390015 1799.359985 1761.76001 1748.430054 1684.569946 1639.339966 1570.199951 1581.650024 1592.890015 1547.51001 1493.150024 1497.369995 1496.030029 1494.849976 1483.670044 1470.150024 1451.839966 1421.119995 1382.089966 1355.709961 1339.209961 1303.47998 1270.01001 1244.390015 1227.069946 1211.97998 1197.780029 1184.680054 1163.680054 1128.890015 1093.089966 1057.099976 1022.960022 995.460022 968.669983 945.859985 914.51001 892.390015 863.77002 845.27002 822.950012 839.650024 868.119995 855.940002 840.320007 846.400024 775.27002 711.219971 670.140015 651.039978 644.340027 640.340027 636.330017 633.710022 631.630005 631.799988 646.419983 693.820007 741.349976 775.030029 833.530029 897.340027 943 978.130005 999.359985 1060.119995 1097.76001 1127.640015 1156.040039 1190.01001 1243.98999 1302.040039 1330.219971 1374.689941 1432.400024 1486.579956 1547.47998 1610.449951 1681.609985 1725.910034 1686.050049 1657.060059 1625.569946 1640.609985 1648.22998 1599.630005 1560.859985 1521.719971 1493.449951 1522.47998 1568.709961 1604.219971 1647.52002 1696.349976 1757.280029 1755.859985 1678.089966 1596.390015 1553.97998 1527.449951 1513.079956 1474.609985 1391.810059 1299.959961 1236.439941 1186.339966 1147.589966 1107.359985 1090 1081.300049 1050.76001 997.309998 936.97998 903.320007 955.76001 1039.77002 1116.170044 1184.560059 1254.900024 1325.300049 1400.189941 1442.680054 1452.349976 1472.359985 1509.969971 1566.869995 1658.550049 1727.140015 1771.959961 1824.859985 1903.109985 1964.670044 2042.949951 2130.129883 2118.01001 2093.689941 2126.23999 2177.949951 2248.72998 -9999 -9999 -9999 -9999 -9999 -9999 -9999 -9999 -9999 -9999 -9999 -9999 -9999 -9999 -9999 -9999 -9999 -9999 -9999 -9999 -9999 -9999 -9999 -9999 -9999 -9999 -9999 -9999 -9999 -9999 -9999 -9999 -9999 -9999 -9999 -9999 -9999 -9999 -9999 -9999 -9999 -9999 -9999 -9999 -9999 -9999 -9999 -9999 -9999 -9999 -9999 -9999 -9999 -9999 -9999 -9999 -9999 -9999 -9999 -9999 -9999 -9999 -9999 -9999 -9999 -9999 -9999 -9999 -9999 -9999 -9999 -9999 -9999 -9999 -9999 -9999 -9999 -9999 -9999
-9999 -9999 -9999 -9999 -9999 -9999 -9999 -9999 -9999 -9999 -9999 -9999 -9999 -9999 -9999 -9999 -9999 -9999 -9999 -9999 -9999 -9999 -9999 -9999 -9999 -9999 -9999 -9999 -9999 -9999 -9999 -9999 -9999 -9999 -9999 -9999 -9999 -9999 -9999 -9999 -9999 -9999 -9999 -9999 -9999 -9999 -9999 -9999 2818.110107 2770.669922 2730.820068 2679.399902 2631.209961 2602.159912 2600.52002 2623.699951 2656.550049 2686.25 2685.090088 2630.379883 2570.77002 2510.639893 2433.439941 2363.709961 2323.350098 2296.540039 2284.860107 2281.179932 2303.719971 2352.73999 2388.949951 2406.820068 2420.620117 2439.75 2453.73999 2464.77002 2480.280029 2473.27002 2430.540039 2418.100098 2382.929932 2335.47998 2234.47998 2188.090088 2175.209961 2170.51001 2173.199951 2180.73999 2161.389893 2108.120117 2096.48999 2071.209961 2089.800049 2100.350098 2107.649902 2112.949951 2084.27002 2066.850098 2031.719971 2015.670044 1972.849976 1916.48999 1913.130005 1891.670044 1866.51001 1816.97998 1762.76001 1689.969971 1634.140015 1650.630005 1662.910034 1601.719971 1564.859985 1592.719971 1589.650024 1578.890015 1558.339966 1540.130005 1521.930054 1485.959961 1440.910034 1425.869995 1385.550049 1343.040039 1317.459961 1285.599976 1260.280029 1238.170044 1225.76001 1210.5 1190.819946 1166.780029 1134.160034 1098.410034 1069.699951 1040.51001 1018.349976 996.76001 967.840027 932.650024 895.580017 883.119995 855.73999 810.48999 783.26001 772.450012 757.460022 779.080017 743.98999 685.409973 662.409973 652.429993 647.25 641.690002 635.429993 631.080017 629.25 637.469971 673.429993 723.900024 768.059998 814.630005 866.309998 933.880005 995.659973 1043.630005 1061.079956 1079.22998 1121.430054 1144.540039 1187.459961 1207.140015 1253.530029 1312.839966 1353.300049 1413.900024 1483.670044 1540.439941 1587.030029 1647.189941 1711.180054 1735.790039 1697.380005 1649.170044 1607.27002 1597.969971 1601.380005 1567.689941 1528.310059 1492.280029 1484.579956 1540.930054 1589.26001 1632.189941 1667.869995 1712.52002 1770.170044 1749.23999 1666.420044 1592.23999 1519.880005 1455.880005 1435.670044 1441.640015 1407.650024 1352.780029 1298.01001 1243.380005 1196.589966 1123.030029 1071.119995 1040.130005 1020.340027 986.390015 936.539978 895.849976 958.700012 1053.140015 1138.319946 1187.680054 1248.390015 1318.52002 1390.75 1458.790039 1510.839966 1547.390015 1595.140015 1619.25 1663.47998 1720.119995 1789.52002 1887.949951 1952.839966 2007.699951 2065.47998 2149.090088 2205.73999 2185.52002 2195.629883 2216.449951 2231.649902 2235.120117 -9999 -9999 -9999 -9999 -9999 -9999 -9999 -9999 -9999 -9999 -9999 -9999 -9999 -9999 -9999 -9999 -9999 -9999 -9999 -9999 -9999 -9999 -9999 -9999 -9999 -9999 -9999 -9999 -9999 -9999 -9999 -9999 -9999 -9999 -9999 -9999 -9999 -9999 -9999 -9999 -9999 -9999 -9999 -9999 -9999 -9999 -9999 -9999 -9999 -9999 -9999 -9999 -9999 -9999 -9999 -9999 -9999 -9999 -9999 -9999 -9999 -9999 -9999 -9999 -9999 -9999 -9999 -9999 -9999 -9999 -9999 -9999 -9999 -9999 -9999 -9999 -9999 -9999
-9999 -9999 -9999 -9999 -9999 -9999 -9999 -9999 -9999 -9999 -9999 -9999 -9999 -9999 -9999 -9999 -9999 -9999 -9999 -9999 -9999 -9999 -9999 -9999 -9999 -9999 -9999 -9999 -9999 -9999 -9999 -9999 -9999 -9999 -9999 -9999 -9999 -9999 -9999 -9999 -9999 -9999 -9999 -9999 -9999 -9999 -9999 -9999 2803.590088 2753.909912 2713.310059 2661.120117 2600.899902 2566.199951 2555.810059 2575.090088 2611.820068 2650.600098 2666.75 2626.090088 2592.610107 2559.370117 2487.629883 2401.689941 2356.75 2326.810059 2314.199951 2321.909912 2363.22998 2406.699951 2429.610107 2442.280029 2459.899902 2481.459961 2513.870117 2524.959961 2519 2442.959961 2365.669922 2333.73999 2316.649902 2320.01001 2216.429932 2151.189941 2116.879883 2097.120117 2080.379883 2085.860107 2097.459961 2073.830078 2059.570068 2048.600098 2051.320068 2039.969971 2038.030029 2036.079956 2011.660034 1984.560059 1996.76001 2012.469971 1997.430054 1995.040039 1979.069946 1946.040039 1913.790039 1887.329956 1817.619995 1748.579956 1719.589966 1733.23999 1717.660034 1649.050049 1649.530029 1676.160034 1672.689941 1661.069946 1631.650024 1607.140015 1582.939941 1540.969971 1507.920044 1480.23999 1428.119995 1385.900024 1353.069946 1318.599976 1288.319946 1263.790039 1252.880005 1236.349976 1215.76001 1192.910034 1167.319946 1134.5 1115.599976 1084.109985 1056.569946 1044.140015 1026.839966 991.299988 955.809998 932.219971 894.309998 851.390015 806.27002 780 755.47998 731.309998 710.429993 673.599976 662.47998 655.690002 648.859985 642.25 634.5 628.409973 633.179993 655.26001 694.47998 747.76001 809.330017 858.070007 914.780029 968.23999 1024.619995 1086.430054 1119.530029 1143.140015 1152.02002 1165.109985 1189.209961 1231.849976 1263.069946 1305.51001 1355.51001 1414.670044 1486.089966 1551.869995 1621.680054 1688.52002 1726.5 1731.290039 1698.02002 1663.23999 1616.76001 1580.910034 1566.079956 1533.72998 1499.800049 1466.459961 1492.810059 1545.910034 1596.650024 1651.089966 1705.180054 1745.630005 1768.640015 1706.650024 1637.630005 1563.910034 1515.670044 1457.550049 1383.650024 1362.180054 1355.189941 1322.930054 1304.689941 1291.98999 1235.27002 1166.130005 1101.650024 1044.439941 988.23999 950.789978 920.97998 892.73999 976.599976 1056.310059 1146.170044 1226.73999 1282.27002 1327.349976 1386 1460.160034 1536.25 1631.099976 1711.619995 1773.400024 1742.099976 1750.339966 1797.650024 1886.819946 1982.98999 2071.570068 2137.129883 2193.399902 2228.649902 2194.629883 2202.850098 2216.5 2178.98999 2172.209961 2208.669922 -9999 -9999 -9999 -9999 -9999 -9999 -9999 -9999 -9999 -9999 -9999 -9999 -9999 -9999 -9999 -9999 -9999 -9999 -9999 -9999 -9999 -9999 -9999 -9999 -9999 -9999 -9999 -9999 -9999 -9999 -9999 -9999 -9999 -9999 -9999 -9999 -9999 -9999 -9999 -9999 -9999 -9999 -9999 -9999 -9999 -9999 -9999 -9999 -9999 -9999 -9999 -9999 -9999 -9999 -9999 -9999 -9999 -9999 -9999 -9999 -9999 -9999 -9999 -9999 -9999 -9999 -9999 -9999 -9999 -9999 -9999 -9999 -9999 -9999 -9999 -9999 -9999
-9999 -9999 -9999 -9999 -9999 -9999 -9999 -9999 -9999 -9999 -9999 -9999 -9999 -9999 -9999 -9999 -9999 -9999 -9999 -9999 -9999 -9999 -9999 -9999 -9999 -9999 -9999 -9999 -9999 -9999 -9999 -9999 -9999 -9999 -9999 -9999 -9999 -9999 -9999 -9999 -9999 -9999 -9999 -9999 -9999 -9999 -9999 -9999 2800.959961 2746.389893 2702.379883 2652.189941 2583.469971 2532.01001 2516.550049 2528.600098 2559.560059 2609.830078 2646.699951 2676.560059 2661.179932 2600.659912 2529.060059 2465.909912 2408.449951 2375.129883 2371.909912 2393.870117 2425.73999 2450.419922 2463.050049 2477.080078 2509.139893 2551.379883 2553.050049 2501.709961 2458.110107 2425.159912 2339.790039 2263.26001 2222.280029 2249.959961 2223.52002 2149.110107 2093.409912 2048.929932 2011.170044 1992.699951 2003.140015 1980.709961 1980.77002 1974.959961 1964.880005 1963.469971 1957.280029 1954.5 1932.280029 1910.589966 1928.73999 1938.579956 1947.75 1956.180054 1922.439941 1887.22998 1862.930054 1870.47998 1846.969971 1837.060059 1820.119995 1816.119995 1781.689941 1733.849976 1739.219971 1759.949951 1770.310059 1746.540039 1703.709961 1674.339966 1652.140015 1609.560059 1578.23999 1534.589966 1476.22998 1428.300049 1387.27002 1348.550049 1315.5 1304.910034 1284.430054 1259.180054 1238.310059 1219 1199.670044 1175.430054 1144.079956 1115.130005 1095.119995 1079.109985 1056.359985 1033.72998 1006.349976 969.109985 918.109985 876.799988 832.51001 793.859985 753.27002 707.090027 686.869995 672.5 664.330017 657.48999 649.429993 641.76001 630.900024 627.75 636.909973 672.099976 708.960022 763.01001 827.059998 880.669983 945.320007 998.559998 1052.060059 1095.119995 1140.290039 1182.530029 1200.599976 1205.930054 1219.380005 1270.22998 1316.02002 1333.939941 1360.790039 1413.5 1474.780029 1539.280029 1613.47998 1671.089966 1678.23999 1680.810059 1660.560059 1633.910034 1598.380005 1559.630005 1533.140015 1502.089966 1472.050049 1453.709961 1497.780029 1550.390015 1603.420044 1666.109985 1727.959961 1784.02002 1770.859985 1709.780029 1641.01001 1571.550049 1491.97998 1424.72998 1369.449951 1296.140015 1285.579956 1272.310059 1238.98999 1254.640015 1247.900024 1194.869995 1125.170044 1056.469971 983.809998 932.820007 892.840027 892.210022 977.150024 1050.209961 1133.839966 1232.439941 1317.130005 1379.47998 1435.72998 1496.709961 1577.099976 1655 1733.949951 1804.51001 1817.25 1808.619995 1873.23999 1942.699951 1977.959961 2061.959961 2131.780029 2203.110107 2197.139893 2142.100098 2141.290039 2164.73999 2122.429932 2113.429932 2153.560059 2174.300049 2189.280029 -9999 -9999 -9999 -9999 -9999 -9999 -9999 -9999 -9999 -9999 -9999 -9999 -9999 -9999 -9999 -9999 -9999 -9999 -9999 -9999 -9999 -9999 -9999 -9999 -9999 -9999 -9999 -9999 -9999 -9999 -9999 -9999 -9999 -9999 -9999 -9999 -9999 -9999 -9999 -9999 -9999 -9999 -9999 -9999 -9999 -9999 -9999 -9999 -9999 -9999 -9999 -9999 -9999 -9999 -9999 -9999 -9999 -9999 -9999 -9999 -9999 -9999 -9999 -9999 -9999 -9999 -9999 -9999 -9999 -9999 -9999 -9999 -9999 -9999 -9999
-9999 -9999 -9999 -9999 -9999 -9999 -9999 -9999 -9999 -9999 -9999 -9999 -9999 -9999 -9999 -9999 -9999 -9999 -9999 -9999 -9999 -9999 -9999 -9999 -9999 -9999 -9999 -9999 -9999 -9999 -9999 -9999 -9999 -9999 -9999 -9999 -9999 -9999 -9999 -9999 -9999 -9999 -9999 -9999 -9999 -9999 -9999 2857.76001 2780.459961 2732.919922 2697.120117 2655.52002 2598.939941 2525.800049 2487.5 2491.27002 2514.570068 2561.530029 2607.51001 2655.860107 2721.969971 2668.639893 2573.5 2527.909912 2473.800049 2432.620117 2433.290039 2459.699951 2475.219971 2495.540039 2506.209961 2517.209961 2536.399902 2490.120117 2499.399902 2428.51001 2363.73999 2342.469971 2298.310059 2224.639893 2152.919922 2156.98999 2185.810059 2135.580078 2073.449951 2004.630005 1950.829956 1922.189941 1901.819946 1895.5 1908.449951 1892.369995 1883.459961 1892.530029 1874.130005 1888.75 1865.540039 1858.51001 1863.47998 1869.290039 1893.339966 1895.189941 1858.23999 1814.550049 1797.880005 1797.589966 1796.719971 1786.73999 1785.73999 1793.790039 1782.189941 1778.51001 1776.22998 1762.609985 1769.709961 1779.01001 1774.72998 1744.27002 1710.530029 1673.77002 1629.660034 1579.51001 1525.910034 1462.209961 1412.550049 1373.22998 1353.609985 1346.73999 1317.030029 1284.5 1262.410034 1243.109985 1228.560059 1209.969971 1181.719971 1154.939941 1126.219971 1100.619995 1069.77002 1047.109985 1019.5 987.47998 941.5 888.090027 842.679993 792.01001 735.280029 698.98999 681.400024 669.780029 658.460022 653.859985 647.570007 640.5 629.859985 627.75 649.76001 686.309998 732.98999 792.409973 847.349976 896.190002 948.630005 1009.169983 1059.300049 1108.660034 1158.180054 1197.439941 1235.630005 1263.680054 1258.180054 1292.939941 1359.599976 1389.660034 1413.5 1430.439941 1479.290039 1545.280029 1621.109985 1676.390015 1661.900024 1648.26001 1630.660034 1600.01001 1571.23999 1546.170044 1519.140015 1484.359985 1448.01001 1448.800049 1496.25 1547.280029 1610.47998 1678.910034 1741.02002 1783.890015 1736.109985 1672 1608.150024 1557.910034 1506.680054 1434.01001 1343.459961 1270.5 1219.099976 1205.540039 1187.619995 1195.689941 1213.089966 1186.609985 1120.180054 1055.959961 987.140015 927.409973 881.659973 888.330017 958.390015 1038.670044 1132.209961 1219.719971 1309.430054 1379.369995 1429.630005 1476.619995 1519.459961 1600.449951 1683.5 1765.420044 1836.439941 1912 1985.060059 2006.619995 2041.650024 2081.679932 2168.030029 2208.530029 2157.570068 2098.320068 2095.280029 2109.850098 2079.72998 2065.73999 2100.919922 2108.939941 2135.27002 2134.169922 2139.669922 -9999 -9999 -9999 -9999 -9999 -9999 -9999 -9999 -9999 -9999 -9999 -9999 -9999 -9999 -9999 -9999 -9999 -9999 -9999 -9999 -9999 -9999 -9999 -9999 -9999 -9999 -9999 -9999 -9999 -9999 -9999 -9999 -9999 -9999 -9999 -9999 -9999 -9999 -9999 -9999 -9999 -9999 -9999 -9999 -9999 -9999 -9999 -9999 -9999 -9999 -9999 -9999 -9999 -9999 -9999 -9999 -9999 -9999 -9999 -9999 -9999 -9999 -9999 -9999 -9999 -9999 -9999 -9999 -9999 -9999 -9999 -9999 -9999
-9999 -9999 -9999 -9999 -9999 -9999 -9999 -9999 -9999 -9999 -9999 -9999 -9999 -9999 -9999 -9999 -9999 -9999 -9999 -9999 -9999 -9999 -9999 -9999 -9999 -9999 -9999 -9999 -9999 -9999 -9999 -9999 -9999 -9999 -9999 -9999 -9999 -9999 -9999 -9999 -9999 -9999 -9999 -9999 -9999 -9999 -9999 2809.25 2749.469971 2713.48999 2678.25 2640.209961 2576.879883 2498.47998 2458.169922 2456.219971 2471.449951 2511.889893 2573.840088 2613.629883 2674.969971 2711.350098 2675.679932 2600.149902 2538.949951 2506.350098 2495.860107 2522.320068 2560 2555.629883 2484.47998 2449.629883 2454.330078 2408.149902 2410.820068 2345.02002 2256.810059 2221.100098 2194.139893 2189.879883 2100.199951 2055.47998 2087.47998 2071.689941 2011.859985 1975.780029 1904.699951 1865.400024 1834.660034 1824.349976 1838.209961 1822.869995 1824.380005 1809.079956 1806.209961 1817.869995 1804.319946 1802.130005 1800.680054 1814.050049 1848.869995 1840.75 1798.810059 1759.859985 1752.869995 1740.51001 1734.23999 1719.52002 1715.97998 1719.52002 1715.839966 1722.910034 1727.410034 1712.589966 1719.800049 1730.069946 1768.449951 1802.48999 1767.300049 1723.829956 1679.670044 1616.619995 1557.77002 1500.459961 1448.75 1404.160034 1372.02002 1355.869995 1334.040039 1309.23999 1282.380005 1269.109985 1260.76001 1240.359985 1211.079956 1174.75 1143.540039 1112.579956 1081.060059 1057.380005 1019.590027 982.98999 941.909973 894.23999 846.27002 773.630005 711.090027 677.98999 671.530029 662.73999 654.390015 647.570007 643.419983 637.030029 625.450012 626.880005 663.27002 702.830017 751.900024 809.909973 866.559998 916.200012 959.26001 1020.97998 1082.689941 1133.339966 1171.160034 1212.890015 1266.709961 1310.27002 1313.069946 1319.75 1375.790039 1426.76001 1481.430054 1498.290039 1507.52002 1555.930054 1626.390015 1694.099976 1706.709961 1666.849976 1625.670044 1587.619995 1558.420044 1527.47998 1501.97998 1467.060059 1428.880005 1448.97998 1498.680054 1551.359985 1605.459961 1661.569946 1718.189941 1768.930054 1736.089966 1667.089966 1596 1523.810059 1463.130005 1425.290039 1362.459961 1294.640015 1223.550049 1167.410034 1144.660034 1146.150024 1159.560059 1138.77002 1097.51001 1041.829956 977.849976 913.789978 868.030029 896.429993 981.97998 1052.5 1142.369995 1213.859985 1279.589966 1333.380005 1377.380005 1418.650024 1484.589966 1578.73999 1686.189941 1756.839966 1819.560059 1879.359985 1932.550049 1945.319946 2017.219971 2084.449951 2157.379883 2185.570068 2128.909912 2068.590088 2050.100098 2064.090088 2058.969971 2024.02002 2044.630005 2050.77002 2079.26001 2071.699951 2080.330078 2135.290039 -9999 -9999 -9999 -9999 -9999 -9999 -9999 -9999 -9999 -9999 -9999 -9999 -9999 -9999 -9999 -9999 -9999 -9999 -9999 -9999 -9999 -9999 -9999 -9999 -9999 -9999 -9999 -9999 -9999 -9999 -9999 -9999 -9999 -9999 -9999 -9999 -9999 -9999 -9999 -9999 -9999 -9999 -9999 -9999 -9999 -9999 -9999 -9999 -9999 -9999 -9999 -9999 -9999 -9999 -9999 -9999 -9999 -9999 -9999 -9999 -9999 -9999 -9999 -9999 -9999 -9999 -9999 -9999 -9999 -9999 -9999 -9999
-9999 -9999 -9999 -9999 -9999 -9999 -9999 -9999 -9999 -9999 -9999 -9999 -9999 -9999 -9999 -9999 -9999 -9999 -9999 -9999 -9999 -9999 -9999 -9999 -9999 -9999 -9999 -9999 -9999 -9999 -9999 -9999 -9999 -9999 -9999 -9999 -9999 -9999 -9999 -9999 -9999 -9999 -9999 -9999 -9999 -9999 -9999 2796.98999 2726.060059 2680.830078 2636.550049 2588.070068 2532.26001 2477.620117 2443.429932 2440.060059 2447.719971 2475.790039 2534.189941 2555.719971 2575.169922 2644.139893 2673.159912 2689.300049 2672.699951 2644.090088 2627.73999 2596.780029 2540.820068 2525.129883 2447.610107 2363.330078 2328.860107 2309.370117 2325.780029 2279.25 2228.620117 2136.340088 2080.110107 2102.48999 2047.640015 1977.810059 1972.650024 1979.099976 1946.959961 1886.939941 1836.75 1808.209961 1789.310059 1775.51001 1773.050049 1770.219971 1761.839966 1732.329956 1736.900024 1734.430054 1745.890015 1749.130005 1736.680054 1759.02002 1793.75 1783.699951 1749.880005 1726.430054 1711.459961 1691.469971 1668.369995 1651.180054 1638.959961 1641.810059 1644.380005 1649.910034 1656.839966 1657 1661.959961 1680.329956 1707.939941 1763.290039 1773.97998 1747.47998 1718.930054 1671.719971 1610.699951 1555.540039 1500.619995 1447.800049 1408.640015 1391.030029 1373.640015 1346.189941 1326 1309.530029 1294.640015 1268.530029 1236.77002 1196.75 1157.469971 1127.280029 1097.22998 1063.52002 1019.549988 975.5 933.859985 883.969971 824.080017 750.289978 689.570007 661.900024 658.880005 656.080017 648.179993 640.630005 637.059998 632.539978 623.169983 633.590027 678.700012 726.200012 771.25 829.77002 898.859985 957.390015 984.97998 1031.23999 1098.790039 1149.02002 1185.400024 1226.790039 1284.339966 1336.930054 1363.079956 1375.319946 1394.910034 1442.75 1512.849976 1556.72998 1570.5 1590.26001 1657.109985 1724.77002 1729.119995 1687.300049 1637.97998 1587.420044 1544.76001 1511 1480.660034 1445.47998 1415.48999 1454.390015 1509.26001 1558.099976 1605.22998 1647.790039 1704.709961 1756.030029 1719.619995 1651.609985 1580.359985 1506.849976 1441.689941 1374.040039 1334.910034 1290.48999 1235.969971 1178.26001 1123.660034 1094.939941 1088.180054 1067.079956 1031.619995 1009.549988 958.25 896.200012 857.659973 906.349976 981.530029 1054.699951 1113.359985 1179.150024 1233.97998 1283.890015 1326.22998 1397.530029 1512.170044 1609.939941 1692.109985 1743.810059 1770.069946 1799.880005 1835.550049 1886.709961 1969.199951 2035.640015 2102.830078 2160.669922 2119.149902 2050.459961 1997.140015 1989.22998 2022.599976 1981.939941 1994.439941 1995.780029 2023.97998 2020.72998 2038.699951 2095.899902 2157.27002 -9999 -9999 -9999 -9999 -9999 -9999 -9999 -9999 -9999 -9999 -9999 -9999 -9999 -9999 -9999 -9999 -9999 -9999 -9999 -9999 -9999 -9999 -9999 -9999 -9999 -9999 -9999 -9999 -9999 -9999 -9999 -9999 -9999 -9999 -9999 -9999 -9999 -9999 -9999 -9999 -9999 -9999 -9999 -9999 -9999 -9999 -9999 -9999 -9999 -9999 -9999 -9999 -9999 -9999 -9999 -9999 -9999 -9999 -9999 -9999 -9999 -9999 -9999 -9999 -9999 -9999 -9999 -9999 -9999 -9999 -9999
-9999 -9999 -9999 -9999 -9999 -9999 -9999 -9999 -9999 -9999 -9999 -9999 -9999 -9999 -9999 -9999 -9999 -9999 -9999 -9999 -9999 -9999 -9999 -9999 -9999 -9999 -9999 -9999 -9999 -9999 -9999 -9999 -9999 -9999 -9999 -9999 -9999 -9999 -9999 -9999 -9999 -9999 -9999 -9999 -9999 -9999 -9999 2783.810059 2696.48999 2638.110107 2595.030029 2565.73999 2543.800049 2502.47998 2453.550049 2435.139893 2435.969971 2457.570068 2489.409912 2493.879883 2498.570068 2540.98999 2579.350098 2596.340088 2619.949951 2606.169922 2600.459961 2577.070068 2470.219971 2400.360107 2368.169922 2316.570068 2240.26001 2225.879883 2253.110107 2170.199951 2126.590088 2076.649902 1986.359985 1977.709961 1968.329956 1905.609985 1865.459961 1867.040039 1842.349976 1819.319946 1759.089966 1747.349976 1751.119995 1720.599976 1711.329956 1700.839966 1688.26001 1667.329956 1672.650024 1666.329956 1682.699951 1689.25 1675.380005 1697.290039 1723.359985 1710.810059 1691.040039 1675.170044 1667.48999 1642.069946 1613.109985 1602.939941 1579.599976 1573.459961 1581.579956 1592.26001 1597 1612.079956 1622.72998 1641.469971 1667.680054 1706.689941 1719.430054 1720.680054 1702.339966 1698.530029 1665.670044 1607.339966 1552.569946 1513.23999 1475.48999 1448.48999 1426.5 1389.089966 1361.75 1340 1315.829956 1289.780029 1252.099976 1212.180054 1169.75 1134.209961 1104.209961 1063.640015 1021.109985 967.450012 920.630005 860.929993 788.159973 719.619995 665.97998 648.619995 646.97998 646.099976 639.960022 635.26001 630.98999 628.559998 621.700012 642.630005 696.25 747.01001 797.47998 862.700012 925.549988 993.419983 1033.910034 1056.849976 1102.949951 1160.27002 1203.209961 1246.180054 1292.290039 1349.609985 1393.680054 1424.310059 1446.949951 1465.800049 1521.26001 1583.51001 1646.160034 1655.199951 1698.640015 1736.449951 1706.47998 1664.810059 1634.719971 1589.709961 1550.630005 1510.01001 1465.810059 1424.47998 1409.189941 1456.819946 1506.619995 1534.079956 1576.640015 1637.689941 1709.119995 1768.76001 1756.709961 1694.560059 1611.319946 1535.280029 1465.219971 1366.900024 1296.48999 1234.680054 1193.48999 1149.02002 1102.430054 1067.790039 1036.459961 1013.380005 974.630005 950.409973 918.280029 881.590027 850.539978 895.5 946.309998 1009.609985 1065.569946 1133.339966 1189.030029 1249.640015 1319.180054 1407.849976 1512.790039 1629.689941 1698.48999 1692.26001 1704.170044 1729.790039 1760.949951 1837.48999 1941.030029 1986.040039 2058.820068 2123.340088 2101.01001 2037.650024 1975.650024 1927.51001 1952.910034 1949.849976 1919.72998 1937.609985 1958.099976 1963.829956 2018.609985 2067.629883 2120.110107 2182.840088 -9999 -9999 -9999 -9999 -9999 -9999 -9999 -9999 -9999 -9999 -9999 -9999 -9999 -9999 -9999 -9999 -9999 -9999 -9999 -9999 -9999 -9999 -9999 -9999 -9999 -9999 -9999 -9999 -9999 -9999 -9999 -9999 -9999 -9999 -9999 -9999 -9999 -9999 -9999 -9999 -9999 -9999 -9999 -9999 -9999 -9999 -9999 -9999 -9999 -9999 -9999 -9999 -9999 -9999 -9999 -9999 -9999 -9999 -9999 -9999 -9999 -9999 -9999 -9999 -9999 -9999 -9999 -9999 -9999 -9999
-9999 -9999 -9999 -9999 -9999 -9999 -9999 -9999 -9999 -9999 -9999 -9999 -9999 -9999 -9999 -9999 -9999 -9999 -9999 -9999 -9999 -9999 -9999 -9999 -9999 -9999 -9999 -9999 -9999 -9999 -9999 -9999 -9999 -9999 -9999 -9999 -9999 -9999 -9999 -9999 -9999 -9999 -9999 -9999 -9999 -9999 -9999 2806.699951 2710.830078 2656.830078 2610.75 2598.350098 2584.97998 2541.350098 2477.219971 2426.060059 2419.469971 2439.620117 2458.030029 2436.949951 2431.419922 2429.97998 2434.290039 2445.149902 2487.070068 2521.610107 2519.290039 2509.199951 2436.530029 2346.139893 2260.5 2237.379883 2173.929932 2140.699951 2146.649902 2070.48999 2005.329956 1976.819946 1898.130005 1846.810059 1858.380005 1808.890015 1769.199951 1754.089966 1735.619995 1737.599976 1704.880005 1680.02002 1711.300049 1664.119995 1648.819946 1645.180054 1623.599976 1606.959961 1629.530029 1619.839966 1630.050049 1629.51001 1622.170044 1644.579956 1652.859985 1644.140015 1620.449951 1605.72998 1602.189941 1581.52002 1574.050049 1569.359985 1539.939941 1533.219971 1545.290039 1554.689941 1564.97998 1574.180054 1589.069946 1618.939941 1646.51001 1672.170044 1684.680054 1696.26001 1695.140015 1681.569946 1680.560059 1649.949951 1601.219971 1567.040039 1533.630005 1498.76001 1462.27002 1424.97998 1386.780029 1355.27002 1326.369995 1299.790039 1257.439941 1216.920044 1173.959961 1135.920044 1103.150024 1060.130005 1014.849976 953.159973 899 840.609985 756.280029 691.97998 649.460022 637.400024 637.150024 635.200012 632.440002 629.559998 626.109985 624.359985 620.460022 666.830017 732.929993 780.059998 814.919983 886.039978 946.369995 1008.299988 1065.140015 1093.290039 1133.27002 1180.76001 1220.400024 1271.98999 1308.73999 1357.910034 1412.449951 1464.170044 1500.439941 1520.150024 1562.439941 1623.410034 1692.829956 1719.48999 1746.73999 1736.540039 1693.23999 1637.800049 1594.410034 1563.199951 1529.329956 1492.890015 1451.349976 1412.280029 1396.699951 1437.109985 1471.23999 1510.02002 1562.680054 1621.900024 1697.949951 1761.540039 1789.619995 1728.880005 1652.660034 1568.569946 1484.439941 1380.560059 1306.410034 1221.959961 1176.099976 1160.329956 1142.079956 1112.22998 1053.910034 1025.22998 1025.25 1009.969971 949.640015 886.23999 842.200012 879.22998 941.909973 986.869995 1058.199951 1136.910034 1214.25 1281.800049 1345.560059 1424.699951 1533.050049 1613.969971 1626.119995 1626.5 1639.219971 1653.469971 1714.119995 1805.300049 1877.359985 1971.589966 2036.709961 2098.530029 2075.300049 2020.47998 1961.119995 1893.969971 1881.530029 1910.449951 1873.819946 1880.949951 1897.579956 1936.27002 1986.599976 2035.52002 2094.100098 2167.610107 -9999 -9999 -9999 -9999 -9999 -9999 -9999 -9999 -9999 -9999 -9999 -9999 -9999 -9999 -9999 -9999 -9999 -9999 -9999 -9999 -9999 -9999 -9999 -9999 -9999 -9999 -9999 -9999 -9999 -9999 -9999 -9999 -9999 -9999 -9999 -9999 -9999 -9999 -9999 -9999 -9999 -9999 -9999 -9999 -9999 -9999 -9999 -9999 -9999 -9999 -9999 -9999 -9999 -9999 -9999 -9999 -9999 -9999 -9999 -9999 -9999 -9999 -9999 -9999 -9999 -9999 -9999 -9999 -9999 -9999
-9999 -9999 -9999 -9999 -9999 -9999 -9999 -9999 -9999 -9999 -9999 -9999 -9999 -9999 -9999 -9999 -9999 -9999 -9999 -9999 -9999 -9999 -9999 -9999 -9999 -9999 -9999 -9999 -9999 -9999 -9999 -9999 -9999 -9999 -9999 -9999 -9999 -9999 -9999 -9999 -9999 -9999 -9999 -9999 -9999 -9999 -9999 2838.649902 2755.550049 2705.919922 2659.669922 2634.399902 2599.909912 2547.449951 2461.75 2412.429932 2402.409912 2418.899902 2423.300049 2396.060059 2383.429932 2350.25 2320.310059 2307.149902 2347.320068 2413.969971 2425 2417.360107 2396.310059 2340.439941 2250.439941 2150.02002 2059.889893 1998.349976 2017.569946 1940.949951 1838.01001 1850.140015 1814.839966 1752.880005 1731.51001 1703.72998 1667.98999 1655.380005 1650.959961 1653.930054 1645.369995 1611.280029 1641.959961 1624.709961 1591.76001 1593.579956 1573.72998 1566.72998 1581.189941 1583.469971 1577.890015 1559.079956 1569.589966 1582.219971 1583.819946 1577.780029 1548.400024 1541.949951 1538.23999 1530.150024 1535.869995 1522.939941 1506.560059 1505.810059 1514.119995 1528.98999 1537.699951 1539.189941 1556.810059 1597.060059 1625.619995 1637.380005 1640.040039 1656.050049 1663.829956 1660.359985 1649.079956 1638.810059 1615.780029 1589.969971 1559.540039 1527 1482.719971 1436.410034 1397.349976 1363.420044 1331.160034 1295.880005 1255.930054 1217.410034 1173.040039 1132.329956 1099.150024 1055.420044 1005.299988 940.929993 873.049988 809.119995 741.960022 673.919983 639.789978 631.27002 631.130005 627.650024 626.280029 623.580017 620.359985 618.890015 630.179993 704.719971 774.26001 815.400024 862.76001 888.679993 949.849976 1018.539978 1072.75 1123.180054 1164.72998 1197.25 1241.589966 1287.280029 1325.420044 1363.449951 1420.180054 1492.400024 1527.77002 1567.140015 1624.359985 1673.949951 1748.77002 1787.939941 1781.800049 1742.810059 1690.079956 1635.390015 1582.51001 1536.089966 1500.5 1466.180054 1432.52002 1402.400024 1381.390015 1412.27002 1448.72998 1495.170044 1544.939941 1602.48999 1656.040039 1708.709961 1762.280029 1712.930054 1632.319946 1554.939941 1474.780029 1387.26001 1305.98999 1255.630005 1228.939941 1235.469971 1226.73999 1190.920044 1126.939941 1086.219971 1088.890015 1051.859985 982.27002 901.76001 834.5 864.390015 940.539978 1008.219971 1074.27002 1136.800049 1210.050049 1285.089966 1373.030029 1461.219971 1519.839966 1530.23999 1543.73999 1560.099976 1571.02002 1608.069946 1701.410034 1761.209961 1842.219971 1991.170044 2040.48999 2053.830078 2046.959961 1981.51001 1932.359985 1878.02002 1826.819946 1850.930054 1831.800049 1832.829956 1855.400024 1913.859985 1974.630005 2046.089966 2112.23999 2176.030029 -9999 -9999 -9999 -9999 -9999 -9999 -9999 -9999 -9999 -9999 -9999 -9999 -9999 -9999 -9999 -9999 -9999 -9999 -9999 -9999 -9999 -9999 -9999 -9999 -9999 -9999 -9999 -9999 -9999 -9999 -9999 -9999 -9999 -9999 -9999 -9999 -9999 -9999 -9999 -9999 -9999 -9999 -9999 -9999 -9999 -9999 -9999 -9999 -9999 -9999 -9999 -9999 -9999 -9999 -9999 -9999 -9999 -9999 -9999 -9999 -9999 -9999 -9999 -9999 -9999 -9999 -9999 -9999 -9999 -9999
-9999 -9999 -9999 -9999 -9999 -9999 -9999 -9999 -9999 -9999 -9999 -9999 -9999 -9999 -9999 -9999 -9999 -9999 -9999 -9999 -9999 -9999 -9999 -9999 -9999 -9999 -9999 -9999 -9999 -9999 -9999 -9999 -9999 -9999 -9999 -9999 -9999 -9999 -9999 -9999 -9999 -9999 -9999 -9999 -9999 -9999 -9999 2865.01001 2803.22998 2752.280029 2685.51001 2640.110107 2600.169922 2556.820068 2496.600098 2424.810059 2397.659912 2404.97998 2426.629883 2389.73999 2362.629883 2299.469971 2248.679932 2222.139893 2213.610107 2240.649902 2271.48999 2286.360107 2290.639893 2282.350098 2208.129883 2112.100098 1997.969971 1922.670044 1843.23999 1797.130005 1741.949951 1729.699951 1717.699951 1667.910034 1644.48999 1628.780029 1591.01001 1564.630005 1554.829956 1560.550049 1553.339966 1532.560059 1545.579956 1536.449951 1530.73999 1550.569946 1548.459961 1541.420044 1541.98999 1546.560059 1524.26001 1491.709961 1519.339966 1525.949951 1525.420044 1513.829956 1499.170044 1497.25 1496.300049 1490.650024 1484.26001 1484.719971 1482.97998 1485.77002 1495.199951 1507.310059 1516.22998 1513.569946 1528.609985 1560.359985 1579.650024 1589.160034 1592.920044 1608.300049 1613.349976 1625.01001 1627.150024 1616.5 1598.410034 1583.98999 1552.150024 1520.469971 1478.77002 1433.109985 1395.469971 1365.380005 1331.98999 1295.72998 1257.640015 1205.660034 1165.790039 1131.810059 1086.48999 1044.319946 995.72998 931.130005 869.73999 798.580017 722.130005 672.179993 643.130005 630.01001 625.940002 620.299988 620.27002 618.440002 615.52002 617.22998 656.919983 736.799988 810.960022 856.159973 908.369995 942.900024 968.609985 1014.369995 1075.420044 1139.170044 1177.650024 1208.569946 1253.130005 1297.099976 1334.310059 1370.130005 1419.829956 1490.199951 1537.680054 1593.410034 1663.449951 1723.550049 1786.97998 1803.540039 1747.119995 1726.280029 1698.27002 1649.119995 1603.26001 1549.150024 1499.920044 1455.150024 1415.930054 1390.209961 1370.910034 1403.719971 1441.48999 1482.619995 1528.430054 1575.469971 1631.109985 1693.430054 1756.050049 1736.050049 1674.930054 1587.060059 1494.969971 1412.280029 1378.390015 1298.380005 1275.98999 1302.76001 1294.920044 1246.560059 1182.550049 1143.459961 1136.579956 1071.5 992.070007 913.22998 845.340027 833.690002 907.700012 1000.940002 1069 1101.719971 1165.780029 1249.650024 1336.790039 1413.51001 1452.5 1453.02002 1474.430054 1497.119995 1519.199951 1584.380005 1686.550049 1752.719971 1827.839966 1958.930054 1969.079956 2003.609985 2018.439941 1960.069946 1897.859985 1848.969971 1796.98999 1790.930054 1792.319946 1795.109985 1860.609985 1928.02002 1980.930054 2031.359985 2081.75 2148.540039 2182.72998 -9999 -9999 -9999 -9999 -9999 -9999 -9999 -9999 -9999 -9999 -9999 -9999 -9999 -9999 -9999 -9999 -9999 -9999 -9999 -9999 -9999 -9999 -9999 -9999 -9999 -9999 -9999 -9999 -9999 -9999 -9999 -9999 -9999 -9999 -9999 -9999 -9999 -9999 -9999 -9999 -9999 -9999 -9999 -9999 -9999 -9999 -9999 -9999 -9999 -9999 -9999 -9999 -9999 -9999 -9999 -9999 -9999 -9999 -9999 -9999 -9999 -9999 -9999 -9999 -9999 -9999 -9999 -9999 -9999
-9999 -9999 -9999 -9999 -9999 -9999 -9999 -9999 -9999 -9999 -9999 -9999 -9999 -9999 -9999 -9999 -9999 -9999 -9999 -9999 -9999 -9999 -9999 -9999 -9999 -9999 -9999 -9999 -9999 -9999 -9999 -9999 -9999 -9999 -9999 -9999 -9999 -9999 -9999 -9999 -9999 -9999 -9999 -9999 -9999 -9999 -9999 2851.320068 2786.290039 2733.389893 2685.889893 2652.620117 2614.070068 2571.860107 2525.330078 2448.600098 2401.290039 2392.25 2407.060059 2384.01001 2328.320068 2271.370117 2198.48999 2139.189941 2111.75 2119.709961 2138.399902 2145.23999 2149.300049 2137.600098 2061.179932 1991.660034 1934.410034 1874.170044 1782.670044 1728.599976 1689.680054 1649.859985 1613.280029 1586.780029 1573.02002 1539.939941 1511.930054 1493.130005 1486.719971 1495.859985 1480.099976 1463.650024 1469.76001 1456.630005 1486.079956 1510.670044 1516.25 1501.25 1481.540039 1484.52002 1464.869995 1431.349976 1448.589966 1461.699951 1463.51001 1458.689941 1458.449951 1460.76001 1463.02002 1458.310059 1455.72998 1457.579956 1460.180054 1463.310059 1472.410034 1478.140015 1480.22998 1483.780029 1490.849976 1494.339966 1520.98999 1538.219971 1540.859985 1551.829956 1562.5 1576.359985 1589.349976 1593.599976 1582.949951 1569.560059 1545.089966 1504.969971 1463.189941 1424.089966 1387.119995 1359.199951 1324.73999 1290.280029 1247.27002 1200.73999 1157.25 1101.310059 1035.5 986.190002 940.900024 897.039978 838.929993 775.530029 712.940002 670.97998 649.419983 631.719971 621.679993 618.039978 617.419983 614.780029 612.820007 638.409973 698.289978 773.429993 832.609985 892.809998 943.890015 987.830017 1020.299988 1055.449951 1096.459961 1142.599976 1189.790039 1231.079956 1271.560059 1309.51001 1345.52002 1378.109985 1417.930054 1471.22998 1536.400024 1608.560059 1671.72998 1748.459961 1822.630005 1768.219971 1710.589966 1671.319946 1650.160034 1620.349976 1581.150024 1535.439941 1494.810059 1446.72998 1397.099976 1369.839966 1363.400024 1401.339966 1445.780029 1496.099976 1536 1578.52002 1640.790039 1709.26001 1776 1769.140015 1689.420044 1605.880005 1528.47998 1488.5 1427.459961 1326.349976 1324.22998 1365.089966 1334.199951 1274.660034 1223.869995 1190.969971 1168.660034 1094.140015 1004.710022 933.390015 863.719971 816.5 854.219971 943.77002 1018.789978 1064.75 1128.719971 1203.219971 1294.900024 1348.380005 1359.23999 1370.869995 1408.829956 1448.780029 1507.160034 1585.650024 1655.709961 1733.040039 1820.969971 1883.48999 1908.670044 1971.930054 1986.099976 1926.910034 1872.859985 1817.209961 1763.680054 1724.339966 1742.170044 1782.400024 1839.869995 1893.25 1932.339966 1972.819946 2028.790039 2105.129883 2145.159912 -9999 -9999 -9999 -9999 -9999 -9999 -9999 -9999 -9999 -9999 -9999 -9999 -9999 -9999 -9999 -9999 -9999 -9999 -9999 -9999 -9999 -9999 -9999 -9999 -9999 -9999 -9999 -9999 -9999 -9999 -9999 -9999 -9999 -9999 -9999 -9999 -9999 -9999 -9999 -9999 -9999 -9999 -9999 -9999 -9999 -9999 -9999 -9999 -9999 -9999 -9999 -9999 -9999 -9999 -9999 -9999 -9999 -9999 -9999 -9999 -9999 -9999 -9999 -9999 -9999 -9999 -9999 -9999 -9999
-9999 -9999 -9999 -9999 -9999 -9999 -9999 -9999 -9999 -9999 -9999 -9999 -9999 -9999 -9999 -9999 -9999 -9999 -9999 -9999 -9999 -9999 -9999 -9999 -9999 -9999 -9999 -9999 -9999 -9999 -9999 -9999 -9999 -9999 -9999 -9999 -9999 -9999 -9999 -9999 -9999 -9999 -9999 -9999 -9999 -9999 -9999 2842.469971 2791.179932 2742.530029 2703.780029 2660.389893 2613.689941 2566.439941 2508.699951 2429.550049 2393.280029 2383.439941 2381.780029 2378.219971 2318.439941 2242.419922 2150.669922 2092.23999 2054.149902 2033.790039 2036.72998 2038.689941 2043.300049 2013.930054 1971.469971 1936.900024 1889.530029 1834.589966 1768.430054 1689.800049 1657.040039 1624.51001 1587.640015 1561.619995 1545.949951 1514.060059 1459.26001 1432.449951 1435.050049 1432.439941 1426.290039 1421.880005 1412.02002 1399.52002 1430.099976 1455.569946 1459.689941 1449.52002 1431.569946 1431.22998 1417.430054 1377.48999 1370.469971 1381.689941 1398.089966 1394.97998 1397.630005 1414.689941 1414.170044 1413.939941 1420.079956 1421.189941 1422.130005 1437.719971 1438.670044 1438.849976 1430.209961 1433.939941 1437.790039 1439.819946 1471.859985 1483.900024 1487.48999 1497.119995 1511.459961 1526.839966 1534.72998 1548.089966 1561.810059 1545.219971 1529.369995 1492.439941 1446.339966 1405.709961 1371.430054 1349.709961 1316.109985 1279.790039 1244.439941 1205.829956 1156.819946 1110.890015 1037.98999 962.47998 902.190002 848.780029 803.219971 755.409973 712.440002 680.130005 654.52002 632.659973 620.23999 616.23999 614.929993 610.950012 615.929993 660.469971 736.130005 805.700012 850.52002 910.369995 965.880005 1010.75 1049.040039 1091.709961 1138.430054 1170.910034 1205.680054 1248.23999 1277.22998 1314.77002 1352.26001 1384.02002 1421.300049 1472.209961 1542.430054 1611.829956 1669.5 1747.469971 1801 1759.47998 1708.079956 1643.910034 1591.27002 1547.339966 1521.290039 1486.359985 1446.48999 1407.23999 1370.910034 1341.089966 1365.189941 1409 1461.800049 1513.140015 1565.660034 1613.410034 1653.75 1709.359985 1778.800049 1786.119995 1727.119995 1650.800049 1586.079956 1512.920044 1425.199951 1367.959961 1390.319946 1428.099976 1387.47998 1334.900024 1264.530029 1238.920044 1191.75 1109.619995 1027.359985 952.940002 879.640015 816.5 835.830017 918.190002 984.109985 1033.670044 1096.98999 1166.859985 1234.359985 1278.369995 1278.27002 1292.569946 1387.97998 1470.790039 1522.76001 1540.099976 1591.449951 1706.040039 1782.459961 1811.060059 1870.459961 1938.810059 1953.969971 1904.02002 1840.75 1786.790039 1728.77002 1671.579956 1716.469971 1752.939941 1781.01001 1817.449951 1867.339966 1938.280029 2005.22998 2043.5 2084.48999 -9999 -9999 -9999 -9999 -9999 -9999 -9999 -9999 -9999 -9999 -9999 -9999 -9999 -9999 -9999 -9999 -9999 -9999 -9999 -9999 -9999 -9999 -9999 -9999 -9999 -9999 -9999 -9999 -9999 -9999 -9999 -9999 -9999 -9999 -9999 -9999 -9999 -9999 -9999 -9999 -9999 -9999 -9999 -9999 -9999 -9999 -9999 -9999 -9999 -9999 -9999 -9999 -9999 -9999 -9999 -9999 -9999 -9999 -9999 -9999 -9999 -9999 -9999 -9999 -9999 -9999 -9999 -9999 -9999
-9999 -9999 -9999 -9999 -9999 -9999 -9999 -9999 -9999 -9999 -9999 -9999 -9999 -9999 -9999 -9999 -9999 -9999 -9999 -9999 -9999 -9999 -9999 -9999 -9999 -9999 -9999 -9999 -9999 -9999 -9999 -9999 -9999 -9999 -9999 -9999 -9999 -9999 -9999 -9999 -9999 -9999 -9999 -9999 -9999 -9999 -9999 2853.139893 2781.959961 2739.01001 2697.98999 2653.409912 2609.419922 2559.110107 2496.459961 2429.129883 2398.530029 2374.419922 2360.97998 2364.909912 2324.98999 2268.300049 2171.550049 2082.679932 2029 1983.040039 1948.449951 1929.72998 1913.699951 1890.079956 1864.630005 1833.959961 1787.670044 1752.22998 1706.939941 1663.060059 1652.25 1647.949951 1651.930054 1623.319946 1559.150024 1479.560059 1413.329956 1392.72998 1391.280029 1383.180054 1380.119995 1385.719971 1374.410034 1356.859985 1362.280029 1391.449951 1403.819946 1395.98999 1385.780029 1378.670044 1364.329956 1325.790039 1300.619995 1298.910034 1314.52002 1326.339966 1345.949951 1368.109985 1376.280029 1374.73999 1378.180054 1378.819946 1374.800049 1392.170044 1394.670044 1391.810059 1391.430054 1384.27002 1381.380005 1400.709961 1428.079956 1425.160034 1434.359985 1452.329956 1464.069946 1477.27002 1490.209961 1500.72998 1519.680054 1520.810059 1498.920044 1471.709961 1430.01001 1386.660034 1359.619995 1333.930054 1305.359985 1272.609985 1232.949951 1191.140015 1143.859985 1106.599976 1058.160034 993.219971 929.73999 865.590027 798.109985 742.119995 703.380005 676.880005 651.450012 631.700012 618.109985 614.340027 612.419983 610.070007 627.929993 692.5 772.299988 831.419983 878.51001 937.23999 988.52002 1041.420044 1085.569946 1124.140015 1163.22998 1196.540039 1228.420044 1260.280029 1284.660034 1320.27002 1358.849976 1397.359985 1433 1486.339966 1545.400024 1604.430054 1668.589966 1742.530029 1800.829956 1763.75 1701.560059 1634.150024 1569.349976 1504.449951 1461.449951 1438.300049 1401.550049 1373.449951 1339.98999 1344.02002 1377.380005 1424.920044 1484.599976 1544.839966 1606.109985 1664.369995 1702.209961 1737.910034 1798.829956 1840.939941 1780.079956 1699.040039 1620.890015 1553.780029 1495.319946 1438.130005 1456.420044 1488.5 1450.329956 1380.25 1319.5 1286.670044 1212.390015 1112.579956 1030.22998 965.380005 910.26001 830.75 816.5 895.580017 954.280029 994.539978 1061.359985 1121.099976 1175.48999 1214.130005 1211.939941 1253.98999 1394.589966 1448.77002 1455.699951 1478.930054 1563.380005 1670.619995 1719.380005 1754.98999 1832.130005 1897.839966 1908.97998 1877.910034 1838.859985 1778.01001 1692.180054 1633.869995 1672.339966 1699.050049 1729.199951 1779.060059 1853.630005 1928.170044 1950.77002 1981.660034 2021.140015 -9999 -9999 -9999 -9999 -9999 -9999 -9999 -9999 -9999 -9999 -9999 -9999 -9999 -9999 -9999 -9999 -9999 -9999 -9999 -9999 -9999 -9999 -9999 -9999 -9999 -9999 -9999 -9999 -9999 -9999 -9999 -9999 -9999 -9999 -9999 -9999 -9999 -9999 -9999 -9999 -9999 -9999 -9999 -9999 -9999 -9999 -9999 -9999 -9999 -9999 -9999 -9999 -9999 -9999 -9999 -9999 -9999 -9999 -9999 -9999 -9999 -9999 -9999 -9999 -9999 -9999 -9999 -9999 -9999
-9999 -9999 -9999 -9999 -9999 -9999 -9999 -9999 -9999 -9999 -9999 -9999 -9999 -9999 -9999 -9999 -9999 -9999 -9999 -9999 -9999 -9999 -9999 -9999 -9999 -9999 -9999 -9999 -9999 -9999 -9999 -9999 -9999 -9999 -9999 -9999 -9999 -9999 -9999 -9999 -9999 -9999 -9999 -9999 -9999 -9999 -9999 2832.199951 2763.159912 2723.5 2681.76001 2632.199951 2562.389893 2526.419922 2487.73999 2452.219971 2434.889893 2401.689941 2373.370117 2352.969971 2312.27002 2267.939941 2212.01001 2149.399902 2093.209961 1991.72998 1918.550049 1874.859985 1848.959961 1828.780029 1797.890015 1784.400024 1784.400024 1809.75 1777.670044 1738.599976 1727.609985 1735.689941 1733.140015 1683.819946 1613.709961 1521.329956 1422.23999 1372.73999 1362.079956 1358.170044 1357.079956 1351.47998 1339.209961 1321.26001 1309 1312.869995 1330.630005 1341.619995 1338.920044 1326.339966 1304 1272.939941 1260.939941 1241.030029 1243.23999 1267.01001 1295.079956 1320.969971 1325.599976 1331.949951 1344.920044 1345.170044 1329.599976 1339.959961 1346.670044 1349.619995 1343.890015 1342.869995 1347.119995 1366.449951 1373.449951 1363.589966 1378.680054 1408.339966 1419.76001 1431.030029 1445.51001 1456.459961 1480.400024 1491.579956 1474.27002 1446.26001 1413.560059 1375.959961 1344.01001 1316.75 1291.969971 1255.410034 1213.819946 1177.22998 1133.680054 1095.160034 1049.160034 984.340027 919.890015 857.059998 784.340027 728.150024 684.909973 661.26001 641.369995 625.630005 615.640015 613.059998 610.130005 609.289978 647.159973 721.809998 791.140015 854.409973 918.22998 973.26001 1024.890015 1078.26001 1128.189941 1168.109985 1193.430054 1219.02002 1239.319946 1269.790039 1292.72998 1331.599976 1368.829956 1408.589966 1450.170044 1512.73999 1561.869995 1620.560059 1701.199951 1767.099976 1792.160034 1736.25 1665.329956 1603.780029 1548.27002 1490.890015 1432.140015 1396.880005 1372.780029 1337.380005 1313.609985 1354.22998 1396.030029 1447.449951 1504.459961 1566.369995 1648.130005 1706.5 1736.819946 1753.719971 1789.780029 1818.459961 1802.290039 1739.660034 1671.680054 1606.920044 1550.339966 1514.25 1531.380005 1540.77002 1489.98999 1422.699951 1363.930054 1316.640015 1214.98999 1104.599976 1019.25 958.179993 908.400024 857.059998 800.210022 864.539978 912.26001 944.630005 1011.299988 1074.040039 1132.630005 1154.01001 1161.719971 1245.369995 1346.75 1382.069946 1391.849976 1446.650024 1513.939941 1600.089966 1644.050049 1715.280029 1817.060059 1876.609985 1860.75 1829.310059 1807.089966 1770.150024 1688.329956 1610.599976 1611.75 1654.560059 1707.660034 1769.339966 1832.160034 1871.72998 1873.819946 1920.52002 1983.790039 -9999 -9999 -9999 -9999 -9999 -9999 -9999 -9999 -9999 -9999 -9999 -9999 -9999 -9999 -9999 -9999 -9999 -9999 -9999 -9999 -9999 -9999 -9999 -9999 -9999 -9999 -9999 -9999 -9999 -9999 -9999 -9999 -9999 -9999 -9999 -9999 -9999 -9999 -9999 -9999 -9999 -9999 -9999 -9999 -9999 -9999 -9999 -9999 -9999 -9999 -9999 -9999 -9999 -9999 -9999 -9999 -9999 -9999 -9999 -9999 -9999 -9999 -9999 -9999 -9999 -9999 -9999 -9999 -9999
-9999 -9999 -9999 -9999 -9999 -9999 -9999 -9999 -9999 -9999 -9999 -9999 -9999 -9999 -9999 -9999 -9999 -9999 -9999 -9999 -9999 -9999 -9999 -9999 -9999 -9999 -9999 -9999 -9999 -9999 -9999 -9999 -9999 -9999 -9999 -9999 -9999 -9999 -9999 -9999 -9999 -9999 -9999 -9999 -9999 -9999 -9999 2835.159912 2750.560059 2708.540039 2661.379883 2609.399902 2539.040039 2503.959961 2504.51001 2484.73999 2447.870117 2399.620117 2357.459961 2324.409912 2278.02002 2242.409912 2208.159912 2174.75 2129.98999 2055.080078 1915.52002 1856.900024 1832.069946 1812.689941 1802.109985 1841.900024 1887.339966 1879.25 1853.569946 1829.199951 1798.829956 1799.859985 1803.859985 1738.829956 1660.599976 1567.27002 1458.680054 1394.380005 1357.050049 1340.140015 1335.47998 1325.930054 1311.829956 1295.280029 1281.290039 1269.719971 1259.839966 1263.73999 1267.02002 1261.900024 1238.329956 1228.23999 1223.25 1213.640015 1208.680054 1219.900024 1242.900024 1257.449951 1267.880005 1278.97998 1299.719971 1302.709961 1276.339966 1285.469971 1290.869995 1304.280029 1311.72998 1312.530029 1307.099976 1308.380005 1310.329956 1305.910034 1338.030029 1369.859985 1366.449951 1369.839966 1381.349976 1406.640015 1452.290039 1462.560059 1449.540039 1435.369995 1403.949951 1370.51001 1333.329956 1301.540039 1276.650024 1236.089966 1197.219971 1164.449951 1125.349976 1078.689941 1027.599976 957.51001 890.299988 832.190002 768.52002 706.27002 660.27002 644.169983 628.280029 617.940002 614.02002 613.200012 609.289978 609.849976 661.969971 737.98999 810.719971 875.780029 930.880005 993.080017 1064.819946 1122.900024 1162.390015 1193.709961 1235.420044 1256.390015 1256.219971 1278.390015 1302.880005 1338.689941 1379.199951 1416.719971 1461.680054 1517.540039 1568.130005 1633.949951 1692.609985 1757.670044 1762.640015 1710.410034 1653.800049 1596.869995 1527.420044 1468.599976 1415.380005 1371.689941 1350.98999 1310.839966 1307.790039 1367.630005 1427.099976 1471.01001 1522.630005 1576.869995 1630.439941 1657.780029 1668.189941 1683.180054 1723.329956 1758.170044 1796.550049 1772.680054 1712.47998 1658.130005 1622.589966 1596.959961 1602.150024 1571.140015 1499.410034 1424.300049 1359.160034 1311.699951 1231.619995 1119.97998 1026.569946 956.400024 899.25 852.609985 796.419983 814.880005 869.969971 903.570007 967.799988 1036.310059 1078.310059 1079.130005 1140.030029 1220.619995 1257.52002 1308.719971 1347.48999 1404.709961 1456.069946 1519.540039 1611.109985 1712.099976 1808.180054 1826.150024 1797.300049 1779.76001 1739.089966 1721.359985 1678.469971 1602.920044 1572.380005 1632.23999 1693.130005 1755.810059 1810.98999 1804.079956 1821.109985 1871.829956 1943.040039 -9999 -9999 -9999 -9999 -9999 -9999 -9999 -9999 -9999 -9999 -9999 -9999 -9999 -9999 -9999 -9999 -9999 -9999 -9999 -9999 -9999 -9999 -9999 -9999 -9999 -9999 -9999 -9999 -9999 -9999 -9999 -9999 -9999 -9999 -9999 -9999 -9999 -9999 -9999 -9999 -9999 -9999 -9999 -9999 -9999 -9999 -9999 -9999 -9999 -9999 -9999 -9999 -9999 -9999 -9999 -9999 -9999 -9999 -9999 -9999 -9999 -9999 -9999 -9999 -9999 -9999 -9999 -9999 -9999
-9999 -9999 -9999 -9999 -9999 -9999 -9999 -9999 -9999 -9999 -9999 -9999 -9999 -9999 -9999 -9999 -9999 -9999 -9999 -9999 -9999 -9999 -9999 -9999 -9999 -9999 -9999 -9999 -9999 -9999 -9999 -9999 -9999 -9999 -9999 -9999 -9999 -9999 -9999 -9999 -9999 -9999 -9999 -9999 -9999 -9999 -9999 2851.219971 2781.27002 2712.01001 2657.469971 2603.439941 2557.669922 2535.189941 2527.080078 2503.22998 2430.52002 2375.780029 2329.159912 2292.919922 2256.219971 2222.330078 2189.199951 2153.820068 2104.47998 2028.609985 1921.349976 1871.630005 1850.800049 1847.119995 1887.550049 1952.849976 1962.02002 1931.180054 1914.420044 1900.689941 1895.170044 1891.569946 1848.439941 1773.910034 1692.400024 1602 1501.859985 1425.140015 1376.890015 1347.170044 1333.319946 1325.780029 1317.780029 1304.119995 1294.780029 1294.329956 1278.52002 1254.47998 1235.72998 1222.890015 1211.069946 1203.040039 1196.449951 1193.199951 1190.51001 1185.630005 1192.650024 1213.670044 1222.589966 1227.72998 1239.22998 1243.300049 1231.579956 1238.939941 1246.560059 1268.430054 1280.160034 1271.050049 1254.609985 1250.359985 1253.790039 1260.030029 1293.089966 1328.170044 1329.160034 1320.219971 1326 1368.060059 1419.449951 1427.170044 1428.400024 1425.369995 1399.5 1364.160034 1320.599976 1271.52002 1247.02002 1221.97998 1185.109985 1153.22998 1107.910034 1053.5 1000.200012 929.52002 864.940002 801.47998 738.26001 686.400024 639.719971 627.450012 620.450012 614.659973 612.340027 611.159973 607.200012 616.150024 676.080017 738.26001 800.669983 861.049988 927.549988 996.559998 1070.079956 1137.829956 1183.349976 1224.349976 1266.420044 1283.880005 1285.079956 1289 1306.290039 1346.410034 1381.219971 1415.589966 1461.910034 1514.48999 1561.089966 1616.819946 1665.290039 1709.670044 1723.030029 1669.310059 1602.079956 1572.199951 1524.25 1458.469971 1393.430054 1349.01001 1320.219971 1290.819946 1306.540039 1375.530029 1454.040039 1487.530029 1503.790039 1535.599976 1569.27002 1579.160034 1597.800049 1622.589966 1666.790039 1715.880005 1773.660034 1808.75 1764.609985 1727.579956 1695.300049 1668.72998 1628.859985 1570.75 1506.72998 1430.51001 1353.22998 1292.920044 1238.560059 1179.630005 1085.02002 985.619995 907.609985 852.169983 796.210022 780.840027 824.72998 875.51001 940.72998 1005.52002 1023.900024 1012.570007 1086.859985 1171.949951 1207.089966 1265.459961 1345.670044 1416.949951 1478.959961 1556.030029 1636.619995 1724.599976 1799.079956 1778.050049 1734.359985 1734.959961 1691.339966 1649.900024 1605.469971 1557.050049 1541.410034 1620.339966 1700.439941 1761.25 1771.810059 1745.819946 1780.099976 1827.280029 1889.48999 1918.530029 -9999 -9999 -9999 -9999 -9999 -9999 -9999 -9999 -9999 -9999 -9999 -9999 -9999 -9999 -9999 -9999 -9999 -9999 -9999 -9999 -9999 -9999 -9999 -9999 -9999 -9999 -9999 -9999 -9999 -9999 -9999 -9999 -9999 -9999 -9999 -9999 -9999 -9999 -9999 -9999 -9999 -9999 -9999 -9999 -9999 -9999 -9999 -9999 -9999 -9999 -9999 -9999 -9999 -9999 -9999 -9999 -9999 -9999 -9999 -9999 -9999 -9999 -9999 -9999 -9999 -9999 -9999 -9999
-9999 -9999 -9999 -9999 -9999 -9999 -9999 -9999 -9999 -9999 -9999 -9999 -9999 -9999 -9999 -9999 -9999 -9999 -9999 -9999 -9999 -9999 -9999 -9999 -9999 -9999 -9999 -9999 -9999 -9999 -9999 -9999 -9999 -9999 -9999 -9999 -9999 -9999 -9999 -9999 -9999 -9999 -9999 -9999 -9999 -9999 2827.590088 2789 2743.679932 2674.850098 2640.530029 2607.709961 2539.469971 2494.860107 2464.929932 2444.540039 2409.189941 2342.310059 2303.790039 2261.969971 2209.969971 2160.169922 2133.060059 2097.75 2045.52002 1977.660034 1929 1897.72998 1889 1905.939941 1991.819946 2024.670044 2031.329956 2026.959961 1987.209961 2000.900024 1987.47998 1910.589966 1829.089966 1746.75 1680.829956 1612.949951 1528.569946 1458.699951 1406.400024 1374.02002 1364.22998 1356.449951 1342.449951 1329.599976 1331.5 1338.869995 1333.51001 1311.599976 1290.02002 1270.719971 1246.579956 1221.819946 1208.52002 1201.959961 1188.880005 1181.300049 1177.349976 1179.449951 1187.430054 1186.040039 1186.130005 1192.339966 1187.76001 1195.72998 1199 1215.560059 1226.25 1223.530029 1211.579956 1198.829956 1195.76001 1209.910034 1234.459961 1260.069946 1279.599976 1263.209961 1276.920044 1326.160034 1362.880005 1382.77002 1398.800049 1408.630005 1389.469971 1354.689941 1310.689941 1253.959961 1202.089966 1182.410034 1172.170044 1135.73999 1085.339966 1025.780029 954.950012 899.01001 838.679993 771.650024 716.820007 669.950012 629.26001 616.130005 613.080017 611.190002 610.409973 608.030029 604.369995 632.659973 698.719971 758.5 818.349976 880.099976 947.469971 1011.02002 1076.569946 1134.290039 1192.430054 1250.079956 1289.660034 1292.410034 1299.079956 1293.290039 1313.02002 1349.22998 1379.589966 1416.75 1458.790039 1495.880005 1540.890015 1583.839966 1619.810059 1648.650024 1652.97998 1627.939941 1558.780029 1512.339966 1478.630005 1424.099976 1364.839966 1322.47998 1296.619995 1273.709961 1294.069946 1359.910034 1411.77002 1426.910034 1446.819946 1478.439941 1500.920044 1517.25 1556.5 1598.829956 1653.880005 1708.670044 1761.130005 1822.689941 1829.650024 1798.900024 1746.670044 1674.969971 1602.199951 1539.73999 1486.329956 1427.560059 1350.109985 1288.530029 1238.25 1189.030029 1117.579956 1032.819946 947.419983 870.309998 810.77002 769.98999 814.840027 859.659973 911.450012 964.349976 969.359985 962.23999 1047.48999 1148.189941 1186.209961 1259.680054 1330.23999 1392.540039 1456.050049 1552.699951 1655.160034 1743.430054 1790.030029 1738.790039 1680.400024 1662.469971 1648.76001 1598.949951 1549.089966 1502.469971 1531.23999 1621.920044 1705.380005 1727.819946 1709.109985 1694.959961 1737.630005 1789.630005 1853.390015 1894.619995 -9999 -9999 -9999 -9999 -9999 -9999 -9999 -9999 -9999 -9999 -9999 -9999 -9999 -9999 -9999 -9999 -9999 -9999 -9999 -9999 -9999 -9999 -9999 -9999 -9999 -9999 -9999 -9999 -9999 -9999 -9999 -9999 -9999 -9999 -9999 -9999 -9999 -9999 -9999 -9999 -9999 -9999 -9999 -9999 -9999 -9999 -9999 -9999 -9999 -9999 -9999 -9999 -9999 -9999 -9999 -9999 -9999 -9999 -9999 -9999 -9999 -9999 -9999 -9999 -9999 -9999 -9999 -9999
-9999 -9999 -9999 -9999 -9999 -9999 -9999 -9999 -9999 -9999 -9999 -9999 -9999 -9999 -9999 -9999 -9999 -9999 -9999 -9999 -9999 -9999 -9999 -9999 -9999 -9999 -9999 -9999 -9999 -9999 -9999 -9999 -9999 -9999 -9999 -9999 -9999 -9999 -9999 -9999 -9999 -9999 -9999 -9999 -9999 -9999 2797.429932 2711.47998 2662.370117 2624.709961 2588.040039 2548.600098 2499.320068 2452.01001 2423.419922 2390.629883 2350.879883 2312.080078 2277 2225.929932 2166.179932 2134.290039 2118.139893 2104.290039 2064.77002 2034.189941 1986.280029 1957.170044 1968.209961 2000.859985 2057.340088 2111.709961 2157.179932 2133.040039 2082.320068 2056.25 1952.219971 1875.280029 1813.219971 1753.219971 1688.540039 1615.47998 1533.75 1479.050049 1435.069946 1404.109985 1397.25 1385.619995 1381.609985 1388.670044 1394.609985 1387.599976 1394.359985 1373.380005 1351.089966 1331.52002 1306.079956 1271.449951 1249.280029 1237.780029 1209.329956 1186.900024 1179.890015 1175.650024 1175.650024 1175.650024 1161.23999 1152.439941 1146.040039 1150.099976 1154.829956 1162.410034 1170.819946 1176.359985 1174 1168.77002 1165.130005 1179.599976 1184.569946 1198.390015 1213.530029 1210.800049 1232.25 1262.339966 1293.280029 1325.150024 1347.550049 1374.98999 1374.609985 1342.130005 1308.01001 1263.73999 1212.97998 1148.189941 1120.709961 1101.400024 1056.5 1000.859985 939.289978 867.580017 804.23999 746.359985 697.130005 650.419983 617.630005 607.909973 608.48999 608.419983 607.640015 604.609985 603.919983 650.859985 716.039978 776.940002 832.710022 894.630005 956.210022 1030.380005 1088.130005 1138.359985 1196.300049 1269.800049 1307.640015 1301.02002 1299.349976 1289.199951 1305.079956 1339.390015 1373.51001 1418.069946 1450.77002 1472.51001 1517.619995 1560.630005 1597.310059 1608.209961 1579.98999 1553.569946 1518.630005 1468.319946 1427.22998 1383.609985 1335.01001 1292.439941 1269.709961 1255.97998 1280.180054 1334.359985 1355.469971 1373.040039 1401.640015 1432.920044 1466.449951 1515.550049 1574.719971 1625.76001 1683.569946 1740.709961 1797.01001 1822.560059 1803.26001 1773.930054 1727.109985 1667.02002 1609.640015 1546.27002 1477.25 1416.22998 1348.689941 1302.849976 1269.150024 1225.02002 1153.719971 1078.780029 995.880005 904.440002 830.650024 767.51001 785.619995 828.059998 870.859985 907.039978 917.119995 937.200012 989.349976 1096.469971 1172.290039 1263.069946 1334.310059 1411.449951 1490.119995 1557.48999 1625.51001 1716.650024 1759.949951 1702.920044 1637.859985 1595.949951 1576.719971 1555.719971 1525.069946 1469.839966 1515.050049 1586.630005 1646.819946 1643.280029 1629.619995 1654.650024 1715.459961 1773.359985 1823.280029 1863.219971 -9999 -9999 -9999 -9999 -9999 -9999 -9999 -9999 -9999 -9999 -9999 -9999 -9999 -9999 -9999 -9999 -9999 -9999 -9999 -9999 -9999 -9999 -9999 -9999 -9999 -9999 -9999 -9999 -9999 -9999 -9999 -9999 -9999 -9999 -9999 -9999 -9999 -9999 -9999 -9999 -9999 -9999 -9999 -9999 -9999 -9999 -9999 -9999 -9999 -9999 -9999 -9999 -9999 -9999 -9999 -9999 -9999 -9999 -9999 -9999 -9999 -9999 -9999 -9999 -9999 -9999 -9999 -9999
-9999 -9999 -9999 -9999 -9999 -9999 -9999 -9999 -9999 -9999 -9999 -9999 -9999 -9999 -9999 -9999 -9999 -9999 -9999 -9999 -9999 -9999 -9999 -9999 -9999 -9999 -9999 -9999 -9999 -9999 -9999 -9999 -9999 -9999 -9999 -9999 -9999 -9999 -9999 -9999 -9999 -9999 -9999 -9999 -9999 2757.120117 2707.48999 2654.580078 2615.199951 2583.080078 2548.73999 2513.860107 2475.280029 2416.149902 2365.570068 2324.550049 2282.669922 2235.409912 2207.060059 2189.909912 2169 2163.379883 2162.379883 2142.120117 2116.810059 2110.98999 2086.139893 2055.98999 2083.439941 2097.409912 2132.25 2184.25 2240.810059 2202.580078 2124.48999 2009.51001 1923.920044 1872.380005 1820.609985 1762.22998 1707.209961 1642.52002 1563.109985 1504.790039 1457.119995 1444.22998 1432.560059 1436.089966 1455.150024 1468.790039 1472.699951 1474.099976 1492.869995 1466.930054 1436.52002 1407.5 1367.75 1342.400024 1308.459961 1288.97998 1265.619995 1239.939941 1219.530029 1204.380005 1201.400024 1201.329956 1186.170044 1155.160034 1131.949951 1114.319946 1107.280029 1106.130005 1115.77002 1128.97998 1135.969971 1136.119995 1132.579956 1139.75 1133.180054 1131.349976 1146.199951 1156.920044 1179.800049 1200.839966 1222.300049 1252.819946 1288.219971 1325.439941 1344.109985 1323.829956 1295.640015 1263.050049 1221.199951 1160.73999 1083.930054 1039.619995 1011.22998 963.609985 915.830017 849.890015 785.23999 724.900024 674.840027 638.140015 612.98999 605.830017 606.5 605.929993 604.090027 601.77002 604.23999 660.450012 725.099976 783.289978 841.619995 911.099976 976.400024 1048.069946 1096.77002 1155.780029 1217.050049 1280.219971 1315.959961 1307.670044 1294.22998 1277.410034 1294.130005 1329.140015 1363.670044 1404.849976 1434.449951 1459.25 1513.160034 1538.98999 1544.650024 1546.540039 1501.060059 1467.459961 1457.469971 1444.550049 1391.369995 1342.829956 1304.170044 1268.930054 1247.209961 1237.660034 1263.540039 1297.060059 1321.280029 1354.290039 1405.589966 1454.170044 1499.810059 1550.97998 1611.219971 1667.969971 1720.27002 1767.939941 1771.959961 1753.589966 1736.569946 1712.619995 1697.890015 1672.27002 1625.23999 1562.150024 1507.949951 1439.359985 1370.420044 1314.599976 1267.209961 1218.300049 1158.51001 1097.27002 1022.330017 928.679993 851.719971 789.070007 751.22998 782.539978 814.919983 849.940002 888.48999 936.380005 1008.400024 1101.660034 1200.73999 1271.050049 1339.599976 1425.170044 1510.300049 1578.709961 1672.050049 1757.140015 1735.98999 1663.400024 1602.180054 1551.880005 1515.589966 1491.199951 1489.060059 1447.199951 1493.689941 1561.209961 1596.790039 1571.76001 1575.579956 1629.949951 1691.939941 1738.290039 1789.380005 1846.290039 -9999 -9999 -9999 -9999 -9999 -9999 -9999 -9999 -9999 -9999 -9999 -9999 -9999 -9999 -9999 -9999 -9999 -9999 -9999 -9999 -9999 -9999 -9999 -9999 -9999 -9999 -9999 -9999 -9999 -9999 -9999 -9999 -9999 -9999 -9999 -9999 -9999 -9999 -9999 -9999 -9999 -9999 -9999 -9999 -9999 -9999 -9999 -9999 -9999 -9999 -9999 -9999 -9999 -9999 -9999 -9999 -9999 -9999 -9999 -9999 -9999 -9999 -9999 -9999 -9999 -9999 -9999 -9999
-9999 -9999 -9999 -9999 -9999 -9999 -9999 -9999 -9999 -9999 -9999 -9999 -9999 -9999 -9999 -9999 -9999 -9999 -9999 -9999 -9999 -9999 -9999 -9999 -9999 -9999 -9999 -9999 -9999 -9999 -9999 -9999 -9999 -9999 -9999 -9999 -9999 -9999 -9999 -9999 -9999 -9999 -9999 -9999 2758.439941 2699.01001 2665.030029 2628.540039 2586.219971 2551.110107 2517.620117 2484.409912 2439.600098 2358.030029 2275.199951 2236.649902 2223.51001 2211.080078 2196.459961 2192.909912 2213.419922 2228.409912 2214.100098 2195.620117 2173.580078 2162.600098 2159.070068 2167.840088 2189.959961 2173.379883 2241.840088 2280.25 2257.909912 2179.850098 2075.209961 1988.050049 1935.420044 1886.26001 1839.119995 1788.410034 1736.329956 1683.780029 1603.699951 1543.859985 1508.219971 1486.670044 1471.150024 1502.910034 1531.630005 1549.599976 1546.670044 1559.060059 1589.469971 1591.670044 1554.420044 1508.709961 1473.589966 1427.790039 1392.449951 1378.77002 1363.900024 1319.650024 1291.079956 1268.540039 1252.98999 1233.920044 1217.910034 1186.810059 1161.040039 1136.880005 1113.969971 1097.52002 1088.160034 1086.469971 1091.219971 1095.150024 1093.25 1087.030029 1078.920044 1080.099976 1091.939941 1110.959961 1125.949951 1141.439941 1156.030029 1183.530029 1223.5 1266.189941 1303.72998 1303.969971 1279.189941 1254.900024 1221.609985 1169.170044 1092.819946 1012.710022 942.400024 915.190002 876.429993 813.070007 757.940002 697.840027 652.880005 628.960022 611.659973 605.599976 604.190002 603.48999 601.159973 599.97998 607.22998 669.080017 729.590027 787.450012 851.059998 924.919983 1002.23999 1067.619995 1115.51001 1172.670044 1241.76001 1287.72998 1326.060059 1305.880005 1276.02002 1264.51001 1285.819946 1320.859985 1353.790039 1399.109985 1444.180054 1454.189941 1488.579956 1488.160034 1469.780029 1485.47998 1447.599976 1393.180054 1381.719971 1392.050049 1368.670044 1315.050049 1277.180054 1248.400024 1226.359985 1225.290039 1253.579956 1295.630005 1333.670044 1383.650024 1439.5 1490.079956 1538.300049 1591.780029 1655.310059 1711.400024 1746.189941 1730.209961 1696.099976 1686.140015 1675.170044 1649.050049 1624.810059 1607.560059 1602.719971 1565.699951 1490.819946 1418.910034 1361.439941 1324.869995 1286.060059 1231.199951 1167.819946 1106.199951 1037.849976 952.419983 878.390015 810.090027 744.669983 763.859985 808.27002 865.919983 912.369995 979.950012 1096.569946 1180.02002 1258.430054 1330.790039 1395.47998 1469.310059 1549.430054 1621.449951 1667.969971 1733.290039 1731.920044 1656.829956 1594.079956 1533.719971 1476.079956 1430.640015 1430.02002 1409.040039 1459.280029 1518.310059 1527.449951 1510.75 1554.26001 1616.160034 1663.119995 1711.189941 1762.530029 1821.02002 -9999 -9999 -9999 -9999 -9999 -9999 -9999 -9999 -9999 -9999 -9999 -9999 -9999 -9999 -9999 -9999 -9999 -9999 -9999 -9999 -9999 -9999 -9999 -9999 -9999 -9999 -9999 -9999 -9999 -9999 -9999 -9999 -9999 -9999 -9999 -9999 -9999 -9999 -9999 -9999 -9999 -9999 -9999 -9999 -9999 -9999 -9999 -9999 -9999 -9999 -9999 -9999 -9999 -9999 -9999 -9999 -9999 -9999 -9999 -9999 -9999 -9999 -9999 -9999 -9999 -9999 -9999 -9999
-9999 -9999 -9999 -9999 -9999 -9999 -9999 -9999 -9999 -9999 -9999 -9999 -9999 -9999 -9999 -9999 -9999 -9999 -9999 -9999 -9999 -9999 -9999 -9999 -9999 -9999 -9999 -9999 -9999 -9999 -9999 -9999 -9999 -9999 -9999 -9999 -9999 -9999 -9999 -9999 -9999 -9999 -9999 -9999 2711.98999 2671.659912 2635.899902 2600.5 2561.469971 2522.959961 2485.379883 2441.360107 2381.76001 2295.389893 2234.25 2223.51001 2230.899902 2237.209961 2227.159912 2240.629883 2275.860107 2276.340088 2257.850098 2243.429932 2232.919922 2258.610107 2297.860107 2292.669922 2279.800049 2271.199951 2315.850098 2295.27002 2215.840088 2131.919922 2051.340088 1993.640015 1949.060059 1907.099976 1864.689941 1817.23999 1765.650024 1713.560059 1666.310059 1625.030029 1577.209961 1524.469971 1518.780029 1548.920044 1597.209961 1629.27002 1606.680054 1624.280029 1671.290039 1674.790039 1643.550049 1594.689941 1561.130005 1501.98999 1472.839966 1481.640015 1449.030029 1400.689941 1368.939941 1343.390015 1299.98999 1276.900024 1256.699951 1227.689941 1215.780029 1192.300049 1164.52002 1136.310059 1117.290039 1102.709961 1086.469971 1072.75 1070.910034 1065.170044 1048.189941 1032.77002 1037.390015 1051.98999 1070.189941 1080.609985 1097.930054 1124.099976 1161.439941 1198.959961 1245.449951 1272.540039 1264.890015 1239.540039 1205.27002 1160.540039 1092.180054 1015.47998 940.26001 881.22998 837.280029 784.72998 727.950012 674.440002 641.48999 621.669983 608.179993 603.130005 601.330017 600.400024 599.119995 598.849976 623.51001 690.609985 750.409973 808.799988 884.01001 953.150024 1019.26001 1084.02002 1134.900024 1190.869995 1256.5 1301.430054 1314.839966 1282.319946 1253.599976 1250.670044 1277.060059 1318.859985 1361.079956 1403.050049 1447.290039 1434.939941 1438.390015 1425.819946 1399.459961 1415.709961 1407.819946 1349.959961 1322.949951 1323.349976 1323.680054 1293.619995 1252.829956 1229.150024 1209.439941 1215.47998 1248.76001 1309.550049 1361.109985 1420.719971 1473.140015 1521.280029 1576.369995 1632.900024 1687.119995 1703.810059 1683.959961 1652.079956 1619.839966 1616.73999 1608.390015 1584.609985 1547.589966 1544.859985 1579.819946 1586.410034 1514.560059 1446.5 1398.189941 1360.349976 1312.449951 1248.869995 1173.949951 1102.97998 1033.650024 955.840027 889.109985 822.710022 756.609985 732.75 768.559998 840.01001 897.830017 982.030029 1086.569946 1170.52002 1246.890015 1312.459961 1379.050049 1449.969971 1522.719971 1562.079956 1618.77002 1663.359985 1699.209961 1659.069946 1591.069946 1534.589966 1480.140015 1414.900024 1347.540039 1382.599976 1360.02002 1333.939941 1326.709961 1394.040039 1543.290039 1589.290039 1630.920044 1685.410034 1742.719971 1788.939941 -9999 -9999 -9999 -9999 -9999 -9999 -9999 -9999 -9999 -9999 -9999 -9999 -9999 -9999 -9999 -9999 -9999 -9999 -9999 -9999 -9999 -9999 -9999 -9999 -9999 -9999 -9999 -9999 -9999 -9999 -9999 -9999 -9999 -9999 -9999 -9999 -9999 -9999 -9999 -9999 -9999 -9999 -9999 -9999 -9999 -9999 -9999 -9999 -9999 -9999 -9999 -9999 -9999 -9999 -9999 -9999 -9999 -9999 -9999 -9999 -9999 -9999 -9999 -9999 -9999 -9999 -9999 -9999
-9999 -9999 -9999 -9999 -9999 -9999 -9999 -9999 -9999 -9999 -9999 -9999 -9999 -9999 -9999 -9999 -9999 -9999 -9999 -9999 -9999 -9999 -9999 -9999 -9999 -9999 -9999 -9999 -9999 -9999 -9999 -9999 -9999 -9999 -9999 -9999 -9999 -9999 -9999 -9999 -9999 -9999 -9999 2728.870117 2689.76001 2650.280029 2609.419922 2575.199951 2530.550049 2452 2387.969971 2314.840088 2267.560059 2235.689941 2230.97998 2230.860107 2256.52002 2276.25 2293.320068 2308.48999 2321.830078 2311.350098 2301.459961 2296.580078 2307.540039 2374.23999 2411.330078 2388.100098 2358.389893 2342.810059 2269.580078 2216.899902 2165.290039 2103.189941 2055.639893 2005.660034 1970.02002 1932.069946 1893.410034 1836.26001 1797.650024 1756.050049 1715.589966 1659.709961 1596.900024 1583.599976 1575.680054 1597.97998 1645.949951 1695.900024 1683.219971 1675.599976 1724.119995 1732.390015 1699.069946 1665.439941 1615.910034 1554.079956 1559.52002 1563.48999 1520.900024 1472.98999 1436.650024 1392.390015 1329.719971 1302.469971 1288.619995 1295.890015 1292.27002 1266.079956 1237.97998 1209.280029 1174.430054 1161.75 1141.939941 1116.670044 1114.780029 1106.550049 1086.180054 1062.849976 1030.359985 1013.460022 1013.929993 1030.390015 1051.97998 1074.060059 1101.189941 1143.099976 1193.780029 1230.219971 1234.599976 1211.589966 1181.75 1132.069946 1064.380005 987.039978 923.140015 867.039978 805.690002 747.080017 702.77002 666.289978 642.900024 622.570007 603.830017 597.97998 597.590027 597.289978 596.559998 601.219971 646.330017 713.679993 774.080017 840.419983 913.409973 990.01001 1056.26001 1105.209961 1152.910034 1212.780029 1265.26001 1297.319946 1282.880005 1251.75 1230.150024 1234.439941 1269.599976 1317.98999 1357.589966 1378.75 1400.920044 1401.22998 1386.839966 1370.839966 1336.890015 1340.890015 1354.369995 1317.420044 1278.150024 1268.459961 1270.550049 1255.930054 1224.619995 1208.550049 1195.099976 1208.079956 1255.569946 1324.560059 1387.01001 1447.119995 1506.189941 1555.170044 1610.459961 1660.01001 1684.680054 1657.359985 1610.099976 1585.089966 1540.439941 1523.199951 1524.920044 1511.359985 1477.390015 1497.439941 1552.780029 1603.670044 1552.73999 1482.140015 1422.640015 1366.599976 1320.949951 1272.380005 1209.180054 1118.300049 1038.47998 961.650024 899.890015 842.47998 783.059998 728.919983 721.840027 782.559998 847.849976 931.890015 1025.579956 1121.72998 1189.410034 1272.390015 1341.939941 1387.579956 1426.199951 1482.880005 1547.300049 1580.300049 1633.810059 1660.880005 1605.369995 1538.660034 1478.290039 1419.280029 1339.02002 1269.180054 1230.72998 1182.349976 1212.449951 1304.47998 1495.619995 1556.439941 1611.930054 1666.910034 1704.920044 1745.880005 -9999 -9999 -9999 -9999 -9999 -9999 -9999 -9999 -9999 -9999 -9999 -9999 -9999 -9999 -9999 -9999 -9999 -9999 -9999 -9999 -9999 -9999 -9999 -9999 -9999 -9999 -9999 -9999 -9999 -9999 -9999 -9999 -9999 -9999 -9999 -9999 -9999 -9999 -9999 -9999 -9999 -9999 -9999 -9999 -9999 -9999 -9999 -9999 -9999 -9999 -9999 -9999 -9999 -9999 -9999 -9999 -9999 -9999 -9999 -9999 -9999 -9999 -9999 -9999 -9999 -9999 -9999 -9999
-9999 -9999 -9999 -9999 -9999 -9999 -9999 -9999 -9999 -9999 -9999 -9999 -9999 -9999 -9999 -9999 -9999 -9999 -9999 -9999 -9999 -9999 -9999 -9999 -9999 -9999 -9999 -9999 -9999 -9999 -9999 -9999 -9999 -9999 -9999 -9999 -9999 -9999 -9999 -9999 -9999 2811.300049 2758.379883 2707.719971 2670.860107 2627.709961 2584.149902 2526.889893 2432.629883 2365.790039 2312.560059 2272.429932 2256.949951 2264.189941 2272.459961 2281.040039 2316.889893 2336.879883 2364.129883 2364.919922 2362.389893 2353.75 2348.27002 2370.050049 2406.209961 2477.51001 2485.439941 2460.330078 2410.580078 2330.300049 2257.290039 2202.159912 2153.72998 2111.459961 2067.26001 2028.560059 1990.560059 1957.780029 1921.030029 1869.660034 1829.589966 1786.48999 1729.02002 1674.780029 1672.829956 1646.060059 1655.930054 1666.150024 1697.530029 1766.02002 1751.800049 1738.430054 1760.380005 1786.449951 1761.030029 1725.27002 1661.969971 1623.76001 1636.550049 1624.420044 1579.050049 1522.849976 1475.170044 1422.719971 1362.02002 1337.939941 1352.25 1368.170044 1359.839966 1337.349976 1310.219971 1273.98999 1245.550049 1231.910034 1207.560059 1171.890015 1147.5 1139.640015 1124.25 1107.829956 1081.130005 1047.01001 1013.460022 991.75 994.51001 1016.200012 1044.27002 1085.23999 1129.640015 1169.160034 1187.27002 1172.310059 1139.119995 1091.030029 1025.630005 961.72998 897.140015 837.72998 780.349976 731.320007 691.200012 662.969971 641.369995 619.599976 599.659973 594.559998 594.530029 594.25 599.080017 620.539978 678.219971 730.299988 787.030029 858.299988 928.900024 1006 1076.75 1121.48999 1178.599976 1231.449951 1272.589966 1287.380005 1263.829956 1231.560059 1210.699951 1218.810059 1258.619995 1302.089966 1331.369995 1345.23999 1366.099976 1384.430054 1374.040039 1335.72998 1289.099976 1271.52002 1280.699951 1270.439941 1242.660034 1233.880005 1226.280029 1211.51001 1194.800049 1187.819946 1182.310059 1208.189941 1251.560059 1323.900024 1397.51001 1463.819946 1519.680054 1577.869995 1630.890015 1635.890015 1626.22998 1602.790039 1542.790039 1503.189941 1480.920044 1442.069946 1458.599976 1446.869995 1417.910034 1467.719971 1527.619995 1593.380005 1558.030029 1488.430054 1425 1367.280029 1314.380005 1257.22998 1218.050049 1165.439941 1077.969971 971.039978 905.77002 857.950012 799.820007 741.070007 703 737.27002 794.830017 870 932.650024 1067.869995 1148.699951 1235.040039 1272.310059 1317.449951 1355.630005 1424.939941 1472.98999 1521.219971 1587.709961 1645.910034 1609.390015 1543.849976 1487.800049 1445.109985 1398.969971 1348.780029 1266.51001 1135.810059 1202.420044 1291.050049 1448.02002 1528.089966 1583.430054 1625.150024 1662.589966 1711.420044 -9999 -9999 -9999 -9999 -9999 -9999 -9999 -9999 -9999 -9999 -9999 -9999 -9999 -9999 -9999 -9999 -9999 -9999 -9999 -9999 -9999 -9999 -9999 -9999 -9999 -9999 -9999 -9999 -9999 -9999 -9999 -9999 -9999 -9999 -9999 -9999 -9999 -9999 -9999 -9999 -9999 -9999 -9999 -9999 -9999 -9999 -9999 -9999 -9999 -9999 -9999 -9999 -9999 -9999 -9999 -9999 -9999 -9999 -9999 -9999 -9999 -9999 -9999 -9999 -9999 -9999 -9999 -9999
-9999 -9999 -9999 -9999 -9999 -9999 -9999 -9999 -9999 -9999 -9999 -9999 -9999 -9999 -9999 -9999 -9999 -9999 -9999 -9999 -9999 -9999 -9999 -9999 -9999 -9999 -9999 -9999 -9999 -9999 -9999 -9999 -9999 -9999 -9999 -9999 -9999 -9999 -9999 -9999 -9999 2758.600098 2713.27002 2684.52002 2647.949951 2597.570068 2536.600098 2463.340088 2394.810059 2352.399902 2317.830078 2305.719971 2307.560059 2311.570068 2339.98999 2372.350098 2395.330078 2405.810059 2407.179932 2422.199951 2463.429932 2411.709961 2398.330078 2403.459961 2463.560059 2546.51001 2520.929932 2437.75 2374.080078 2311.550049 2268.310059 2211.080078 2164.25 2114.929932 2079.840088 2046.589966 2017.800049 1983.930054 1944.359985 1895.349976 1843.930054 1791.459961 1768.650024 1756.060059 1733.709961 1718.030029 1719.189941 1721.219971 1749.359985 1821.869995 1831.77002 1802.359985 1790.23999 1838.939941 1829.949951 1769.400024 1707.209961 1718.069946 1711.329956 1677.410034 1619.040039 1556.26001 1495.73999 1441.699951 1398.410034 1403.469971 1424.599976 1422.790039 1419.439941 1403.160034 1375.550049 1348.25 1321.22998 1299.640015 1270.079956 1224.030029 1197.569946 1175.76001 1161.640015 1136.869995 1117.290039 1093.48999 1060.550049 1027.079956 991.75 969.530029 987.349976 1030.359985 1063.920044 1101.939941 1127.77002 1109.030029 1078.439941 1047.75 990.97998 920.799988 859.880005 802.059998 751.340027 702.23999 665.940002 645.869995 631.869995 609.900024 595.940002 592.98999 592.190002 595.450012 613.109985 651.51001 693.549988 746.25 799.599976 871.450012 942.5 1015.119995 1079.719971 1133.170044 1192.47998 1242.930054 1280.300049 1284.219971 1253.060059 1219.26001 1192.290039 1204.030029 1236.959961 1277.01001 1295.5 1311.069946 1337.390015 1364.619995 1371.040039 1328.449951 1275.650024 1225.680054 1213.75 1218.150024 1207.089966 1202.98999 1195.880005 1181.189941 1170.02002 1168.099976 1177.27002 1215.25 1257.930054 1328.77002 1401.140015 1470.439941 1528.130005 1585.410034 1616.890015 1579.650024 1558.670044 1558.02002 1508.310059 1439.829956 1402.569946 1373.819946 1369.910034 1374.660034 1390.719971 1452.310059 1508.369995 1567.5 1543.430054 1492.48999 1436.869995 1379.689941 1328.920044 1278.099976 1222.680054 1169.829956 1111.25 1018.02002 941.669983 890.859985 826.469971 762.75 704.159973 699.22998 744.799988 809.22998 873.27002 1017.640015 1092.089966 1160.810059 1201.790039 1254.189941 1292.72998 1350.609985 1414.469971 1498.530029 1574.819946 1635.150024 1603.969971 1534.449951 1462.140015 1402.439941 1376.150024 1334.609985 1177.619995 1114.52002 1210.839966 1320.560059 1367.819946 1383.630005 1523.27002 1588.189941 1635.719971 1678.959961 1728.550049 -9999 -9999 -9999 -9999 -9999 -9999 -9999 -9999 -9999 -9999 -9999 -9999 -9999 -9999 -9999 -9999 -9999 -9999 -9999 -9999 -9999 -9999 -9999 -9999 -9999 -9999 -9999 -9999 -9999 -9999 -9999 -9999 -9999 -9999 -9999 -9999 -9999 -9999 -9999 -9999 -9999 -9999 -9999 -9999 -9999 -9999 -9999 -9999 -9999 -9999 -9999 -9999 -9999 -9999 -9999 -9999 -9999 -9999 -9999 -9999 -9999 -9999 -9999 -9999 -9999 -9999 -9999
